# .PCD v0.7 - Point Cloud Data file format
VERSION 0.7
FIELDS x y z rgb
SIZE 4 4 4 4
TYPE F F F F
COUNT 1 1 1 1
WIDTH 406
HEIGHT 1
VIEWPOINT 0 0 0 1 0 0 0
POINTS 406
DATA ascii
0.648 -0.038262855 1.296 3.8660662e-39
0.64795905 -0.038115237 1.291 3.4983626e-39
0.6504181 -0.038115237 1.291 3.5891191e-39
0.65287715 -0.038115237 1.291 3.6806043e-39
0.64553142 -0.035794284 1.296 3.9553919e-39
0.6455 -0.035656188 1.291 3.4983682e-39
0.64795905 -0.035656188 1.291 2.9473511e-39
0.6504181 -0.035656188 1.291 3.2221373e-39
0.65287715 -0.035656188 1.291 3.405095e-39
0.6553362 -0.035656188 1.291 3.4969347e-39
0.65779525 -0.035656188 1.291 3.5891233e-39
0.64306283 -0.033325713 1.296 3.6806127e-39
0.64553142 -0.033325713 1.296 3.7728027e-39
0.6455 -0.033197142 1.291 3.1310263e-39
0.64795905 -0.033197142 1.291 2.4878162e-39
0.64840293 -0.033094287 1.2870001 2.8551554e-39
0.65287715 -0.033197142 1.291 3.222503e-39
0.6553362 -0.033197142 1.291 3.4980151e-39
0.65779525 -0.033197142 1.291 3.865004e-39
0.6405943 -0.030857144 1.296 3.8653767e-39
0.64306283 -0.030857144 1.296 3.7731769e-39
0.64553142 -0.030857144 1.296 3.7731671e-39
0.648 -0.030857144 1.296 3.3139812e-39
0.64795905 -0.030738097 1.291 2.7654765e-39
0.6504181 -0.030738097 1.291 3.1303046e-39
0.65287715 -0.030738097 1.291 3.4976536e-39
0.6553362 -0.030738097 1.291 3.6813316e-39
0.65779525 -0.030738097 1.291 3.9575723e-39
0.6602543 -0.030738097 1.291 4.1387504e-39
0.6430496 -0.02860762 1.3060001 4.3252871e-39
0.64306575 -0.028498096 1.3010001 4.1408888e-39
0.64554387 -0.028498096 1.3010001 3.9568479e-39
0.64553142 -0.028388571 1.296 3.8646452e-39
0.648 -0.028388571 1.296 3.4972948e-39
0.64795905 -0.028279047 1.291 3.1299501e-39
0.64840293 -0.02819143 1.2870001 3.4058139e-39
0.65287715 -0.028279047 1.291 3.7731615e-39
0.6553362 -0.028279047 1.291 3.9568381e-39
0.65779525 -0.028279047 1.291 4.1401643e-39
0.6602543 -0.028279047 1.291 4.2320138e-39
0.63810956 -0.026020002 1.3010001 4.2334362e-39
0.6430496 -0.026120001 1.3060001 4.1412672e-39
0.6455372 -0.026120001 1.3060001 3.9575808e-39
0.64554387 -0.026020002 1.3010001 3.864655e-39
0.64802194 -0.026020002 1.3010001 3.7728111e-39
0.648 -0.02592 1.296 3.2217898e-39
0.64795905 -0.02582 1.291 2.6704166e-39
0.64840293 -0.025739999 1.2870001 3.1310291e-39
0.65085429 -0.025739999 1.2870001 3.6824036e-39
0.6553362 -0.02582 1.291 3.8646438e-39
0.65779525 -0.02582 1.291 4.1437475e-39
0.64051718 -0.023722859 1.3110001 3.86499e-39
0.63810956 -0.023541907 1.3010001 4.0490323e-39
0.64058769 -0.023541907 1.3010001 3.9572108e-39
0.64306575 -0.023541907 1.3010001 3.8650096e-39
0.64554387 -0.023541907 1.3010001 3.7728097e-39
0.64802194 -0.023541907 1.3010001 3.7728027e-39
0.6455 -0.023360951 1.291 3.0381118e-39
0.64795905 -0.023360951 1.291 2.3034278e-39
0.64588386 -0.023198096 1.2820001 2.9480699e-39
0.64832574 -0.023198096 1.2820001 3.5905681e-39
0.64301431 -0.021225717 1.3110001 4.3248821e-39
0.6430496 -0.021144763 1.3060001 4.1404964e-39
0.6455372 -0.021144763 1.3060001 3.9564695e-39
0.64802486 -0.021144763 1.3060001 3.8642781e-39
0.65051246 -0.021144763 1.3060001 3.6816777e-39
0.65300006 -0.021144763 1.3060001 3.2217771e-39
0.64795905 -0.020901905 1.291 2.8547939e-39
0.64301431 -0.018728573 1.3110001 4.6000299e-39
0.64551145 -0.018728573 1.3110001 4.3238073e-39
0.6455372 -0.018657144 1.3060001 4.1397804e-39
0.65050578 -0.018728573 1.3110001 3.8642753e-39
0.65051246 -0.018657144 1.3060001 3.6806015e-39
0.65300006 -0.018657144 1.3060001 3.4969277e-39
0.64784575 -0.016417144 1.3260001 4.0486567e-39
0.64546669 -0.016293336 1.3160001 4.4160001e-39
0.64551145 -0.016231429 1.3110001 4.2319718e-39
0.64800864 -0.016231429 1.3110001 4.0479435e-39
0.65050578 -0.016231429 1.3110001 3.8635564e-39
0.65300292 -0.016231429 1.3110001 3.7713608e-39
0.65550005 -0.016231429 1.3110001 3.5880485e-39
0.64784575 -0.01389143 1.3260001 3.9568213e-39
0.64791912 -0.013839048 1.3210001 4.2323291e-39
0.64797342 -0.013786667 1.3160001 4.1408524e-39
0.64800864 -0.013734287 1.3110001 4.0472232e-39
0.65050578 -0.013734287 1.3110001 3.955029e-39
0.65300292 -0.013734287 1.3110001 3.8635536e-39
0.65550005 -0.013734287 1.3110001 3.6773715e-39
0.65539813 -0.011588573 1.3520001 4.0475834e-39
0.65797341 -0.011588573 1.3520001 3.7720755e-39
0.64784575 -0.011365715 1.3260001 3.863911e-39
0.64791912 -0.011322858 1.3210001 3.9561052e-39
0.64797342 -0.01128 1.3160001 3.9568227e-39
0.64800864 -0.011237144 1.3110001 3.8631921e-39
0.65050578 -0.011237144 1.3110001 3.7717139e-39
0.65300292 -0.011237144 1.3110001 3.6802386e-39
0.65550005 -0.011237144 1.3110001 3.6809588e-39
0.65799719 -0.011237144 1.3110001 3.5901967e-39
0.65539813 -0.0090133343 1.3520001 3.9564653e-39
0.65797341 -0.0090133343 1.3520001 3.772437e-39
0.64784575 -0.0088400003 1.3260001 3.7724384e-39
0.64791912 -0.0088066673 1.3210001 3.7724398e-39
0.64551145 -0.0087400004 1.3110001 3.7727999e-39
0.64800864 -0.0087400004 1.3110001 3.772437e-39
0.65050578 -0.0087400004 1.3110001 3.6805987e-39
0.65300292 -0.0087400004 1.3110001 3.588766e-39
0.65550005 -0.0087400004 1.3110001 3.5905625e-39
0.65799719 -0.0087400004 1.3110001 3.6824008e-39
0.66049433 -0.0087400004 1.3110001 3.9564737e-39
0.65539813 -0.0064380961 1.3520001 4.3238073e-39
0.65797341 -0.0064380961 1.3520001 4.4156456e-39
0.64784575 -0.006314286 1.3260001 4.1401433e-39
0.64546669 -0.006266667 1.3160001 3.9564751e-39
0.64551145 -0.0062428573 1.3110001 3.6809714e-39
0.64800864 -0.0062428573 1.3110001 3.4061768e-39
0.65050578 -0.0062428573 1.3110001 3.497648e-39
0.65300292 -0.0062428573 1.3110001 3.6809644e-39
0.65550005 -0.0062428573 1.3110001 3.6824036e-39
0.65799719 -0.0062428573 1.3110001 3.6827679e-39
0.66049433 -0.0062428573 1.3110001 4.0476058e-39
0.66299146 -0.0062428573 1.3110001 4.4135282e-39
0.6428867 -0.003774286 1.3210001 5.0581381e-39
0.64540291 -0.003774286 1.3210001 4.5993208e-39
0.64546669 -0.0037600005 1.3160001 4.2319844e-39
0.64551145 -0.0037457147 1.3110001 3.6809785e-39
0.64800864 -0.0037457147 1.3110001 3.1292424e-39
0.65050578 -0.0037457147 1.3110001 3.4033084e-39
0.65300292 -0.0037457147 1.3110001 3.7728027e-39
0.65550005 -0.0037457147 1.3110001 3.7742377e-39
0.65799719 -0.0037457147 1.3110001 3.7745978e-39
0.66049433 -0.0037457147 1.3110001 4.1387112e-39
0.66299146 -0.0037457147 1.3110001 4.5093182e-39
0.70685434 -0.0038485718 1.3470001 4.325622e-39
0.70942003 -0.0038485718 1.3470001 4.4145974e-39
0.71198577 -0.0038485718 1.3470001 4.5986187e-39
0.71455145 -0.0038485718 1.3470001 4.139793e-39
0.6428867 -0.0012580954 1.3210001 4.7815569e-39
0.64540291 -0.0012580954 1.3210001 4.5074867e-39
0.64546669 -0.0012533334 1.3160001 4.2319886e-39
0.64797342 -0.0012533334 1.3160001 3.496597e-39
0.64800864 -0.0012485716 1.3110001 2.76119e-39
0.65050578 -0.0012485716 1.3110001 3.3111225e-39
0.65300292 -0.0012485716 1.3110001 3.7728069e-39
0.65550005 -0.0012485716 1.3110001 3.9571912e-39
0.65799719 -0.0012485716 1.3110001 4.2337683e-39
0.66049433 -0.0012485716 1.3110001 4.7869294e-39
0.66299146 -0.0012485716 1.3110001 5.4319864e-39
0.6654886 -0.0012485716 1.3110001 7.0086713e-39
0.6679858 -0.0012485716 1.3110001 8.6678129e-39
0.70690292 -0.0012876191 1.3520001 4.8758951e-39
0.70685434 -0.0012828573 1.3470001 4.7844323e-39
0.70942003 -0.0012828573 1.3470001 5.0613892e-39
0.71198577 -0.0012828573 1.3470001 5.3383278e-39
0.64279431 0.0012628572 1.3260001 4.1394259e-39
0.6428867 0.0012580954 1.3210001 4.5989607e-39
0.64296001 0.0012533334 1.3160001 4.415647e-39
0.64546669 0.0012533334 1.3160001 4.2312614e-39
0.64797342 0.0012533334 1.3160001 3.3121931e-39
0.64800864 0.0012485716 1.3110001 2.4849562e-39
0.65050578 0.0012485716 1.3110001 3.1274473e-39
0.65300292 0.0012485716 1.3110001 3.8628474e-39
0.65799999 0.0012533334 1.3160001 4.2309068e-39
0.66050673 0.0012533334 1.3160001 4.692601e-39
0.6630134 0.0012533334 1.3160001 5.5209212e-39
0.66552007 0.0012533334 1.3160001 6.4439621e-39
0.66802669 0.0012533334 1.3160001 7.2848547e-39
0.6679858 0.0012485716 1.3110001 8.1974699e-39
0.67815435 0.0012628572 1.3260001 6.9978687e-39
0.68324673 0.0012676191 1.3310001 5.7978724e-39
0.68831718 0.0012676191 1.3310001 5.5194666e-39
0.70172292 0.0012828573 1.3470001 5.3401032e-39
0.70690292 0.0012876191 1.3520001 5.3411752e-39
0.70685434 0.0012828573 1.3470001 5.3419081e-39
0.70942003 0.0012828573 1.3470001 5.7099844e-39
0.71198577 0.0012828573 1.3470001 6.169508e-39
0.71455145 0.0012828573 1.3470001 6.812704e-39
0.63794672 0.0037600005 1.3160001 4.0475904e-39
0.6404534 0.0037600005 1.3160001 4.3234514e-39
0.64296001 0.0037600005 1.3160001 4.0475834e-39
0.64301431 0.0037457147 1.3110001 3.7717153e-39
0.64551145 0.0037457147 1.3110001 3.3125364e-39
0.64800864 0.0037457147 1.3110001 2.9430477e-39
0.65050578 0.0037457147 1.3110001 3.4951439e-39
0.65300292 0.0037457147 1.3110001 4.0461596e-39
0.65550005 0.0037457147 1.3110001 4.4152995e-39
0.66050673 0.0037600005 1.3160001 4.7840932e-39
0.6630134 0.0037600005 1.3160001 5.2454399e-39
0.66299146 0.0037457147 1.3110001 5.7110648e-39
0.66802669 0.0037600005 1.3160001 6.2645805e-39
0.6756286 0.0037885716 1.3260001 6.818099e-39
0.67815435 0.0037885716 1.3260001 6.0765949e-39
0.68324673 0.0038028574 1.3310001 5.3332887e-39
0.68835813 0.0038171432 1.3360001 5.4276227e-39
0.68831718 0.0038028574 1.3310001 5.4301409e-39
0.7043277 0.0038628574 1.3520001 5.1575098e-39
0.70690292 0.0038628574 1.3520001 5.0656729e-39
0.70685434 0.0038485718 1.3470001 5.0671247e-39
0.71205342 0.0038628574 1.3520001 5.2515313e-39
0.71462864 0.0038628574 1.3520001 5.4362561e-39
0.71455145 0.0038485718 1.3470001 5.708513e-39
0.63785434 0.0062904768 1.3210001 4.1404992e-39
0.63794672 0.006266667 1.3160001 4.0468687e-39
0.6404534 0.006266667 1.3160001 4.0472246e-39
0.64296001 0.006266667 1.3160001 3.6795225e-39
0.64301431 0.0062428573 1.3110001 3.4047335e-39
0.64551145 0.0062428573 1.3110001 3.4050908e-39
0.64800864 0.0062428573 1.3110001 3.4043775e-39
0.65050578 0.0062428573 1.3110001 3.7710063e-39
0.65300292 0.0062428573 1.3110001 4.2312628e-39
0.65799999 0.006266667 1.3160001 4.5078496e-39
0.66050673 0.006266667 1.3160001 4.876279e-39
0.6630134 0.006266667 1.3160001 4.8780839e-39
0.66802669 0.006266667 1.3160001 5.1561001e-39
0.6756286 0.006314286 1.3260001 5.4312409e-39
0.67815435 0.006314286 1.3260001 5.15537e-39
0.68068004 0.006314286 1.3260001 4.9713305e-39
0.68578196 0.0063380958 1.3310001 5.1549917e-39
0.68831718 0.0063380958 1.3310001 5.4301423e-39
0.6908524 0.0063380958 1.3310001 5.247909e-39
0.70685434 0.0064142863 1.3470001 4.7898147e-39
0.70942003 0.0064142863 1.3470001 4.6976317e-39
0.71198577 0.0064142863 1.3470001 4.696903e-39
0.71455145 0.0064142863 1.3470001 4.6961743e-39
0.71445519 0.0063904761 1.342 4.6951024e-39
0.63785434 0.0088066673 1.3210001 3.9571856e-39
0.63794672 0.0087733343 1.3160001 3.8646284e-39
0.6404534 0.0087733343 1.3160001 3.8642697e-39
0.64296001 0.0087733343 1.3160001 3.6805987e-39
0.64301431 0.0087400004 1.3110001 3.4972864e-39
0.64551145 0.0087400004 1.3110001 3.4969291e-39
0.64800864 0.0087400004 1.3110001 3.4983654e-39
0.64802486 0.0087066675 1.3060001 3.8657088e-39
0.65051246 0.0087066675 1.3060001 4.3248905e-39
0.65799999 0.0087733343 1.3160001 4.5089244e-39
0.66050673 0.0087733343 1.3160001 4.7847953e-39
0.6630134 0.0087733343 1.3160001 4.8787888e-39
0.67310292 0.0088400003 1.3260001 5.1553855e-39
0.6756286 0.0088400003 1.3260001 5.3386907e-39
0.67815435 0.0088400003 1.3260001 4.970983e-39
0.68324673 0.0088733332 1.3310001 4.6032753e-39
0.68835813 0.0089066671 1.3360001 4.8787747e-39
0.68831718 0.0088733332 1.3310001 5.1546386e-39
0.69344765 0.0089066671 1.3360001 4.9713249e-39
0.70172292 0.0089800004 1.3470001 4.7880098e-39
0.7042886 0.0089800004 1.3470001 4.7876483e-39
0.70685434 0.0089800004 1.3470001 4.695817e-39
0.70942003 0.0089800004 1.3470001 4.5114328e-39
0.71198577 0.0089800004 1.3470001 4.4188784e-39
0.71455145 0.0089800004 1.3470001 4.3270429e-39
0.63544005 0.01128 1.3160001 3.7738733e-39
0.63794672 0.01128 1.3160001 3.7731517e-39
0.6404534 0.01128 1.3160001 3.7727929e-39
0.64296001 0.01128 1.3160001 3.6816735e-39
0.64301431 0.011237144 1.3110001 3.5891233e-39
0.64551145 0.011237144 1.3110001 3.5887674e-39
0.64800864 0.011237144 1.3110001 3.5902051e-39
0.64802486 0.011194286 1.3060001 4.0490267e-39
0.65051246 0.011194286 1.3060001 4.5089188e-39
0.67310292 0.011365715 1.3260001 5.1535848e-39
0.6756286 0.011365715 1.3260001 5.337253e-39
0.68324673 0.011408572 1.3310001 4.3274128e-39
0.68835813 0.01145143 1.3360001 4.604706e-39
0.68573147 0.011365715 1.3260001 4.9695354e-39
0.6908524 0.011408572 1.3310001 4.7851456e-39
0.69338769 0.011408572 1.3310001 4.6018305e-39
0.7042886 0.011545715 1.3470001 4.6025452e-39
0.70685434 0.011545715 1.3470001 4.6943821e-39
0.70942003 0.011545715 1.3470001 4.4188784e-39
0.71198577 0.011545715 1.3470001 4.1433705e-39
0.71455145 0.011545715 1.3470001 4.0515336e-39
0.63302577 0.013734287 1.3110001 3.7742321e-39
0.6355229 0.013734287 1.3110001 3.9564653e-39
0.6404534 0.013786667 1.3160001 4.1401349e-39
0.64296001 0.013786667 1.3160001 3.9564625e-39
0.64546669 0.013786667 1.3160001 3.6809602e-39
0.64797342 0.013786667 1.3160001 3.7731601e-39
0.65048003 0.013786667 1.3160001 3.7738803e-39
0.65298671 0.013786667 1.3160001 4.141944e-39
0.65051246 0.013681905 1.3060001 4.509995e-39
0.6908524 0.01394381 1.3310001 4.5092846e-39
0.69338769 0.01394381 1.3310001 4.4174463e-39
0.69200385 0.018472383 1.4920001 7.3637351e-39
0.6355229 0.016231429 1.3110001 4.2319718e-39
0.6404534 0.016293336 1.3160001 4.599311e-39
0.64296001 0.016293336 1.3160001 4.2319676e-39
0.64546669 0.016293336 1.3160001 3.8653473e-39
0.64797342 0.016293336 1.3160001 3.9579031e-39
0.65295148 0.016355239 1.3210001 4.0504574e-39
0.69200385 0.021314286 1.4920001 7.4566496e-39
0.6948458 0.021314286 1.4920001 9.5835923e-39
0.6404534 0.018800002 1.3160001 4.3234458e-39
0.64051718 0.018728573 1.3110001 3.9553849e-39
0.64546669 0.018800002 1.3160001 3.6791624e-39
0.64797342 0.018800002 1.3160001 3.8660648e-39
0.65048003 0.018800002 1.3160001 4.1430062e-39
0.65298671 0.018800002 1.3160001 4.3266772e-39
0.69200385 0.024156192 1.4920001 7.5474272e-39
0.69205147 0.024059048 1.4860001 1.0875749e-38
0.6404534 0.021306667 1.3160001 4.0468645e-39
0.64051718 0.021225717 1.3110001 3.7699231e-39
0.64301431 0.021225717 1.3110001 3.4962215e-39
0.64551145 0.021225717 1.3110001 3.8664445e-39
0.64800864 0.021225717 1.3110001 4.2341382e-39
0.65298671 0.021306667 1.3160001 4.4181609e-39
0.64051718 0.023722859 1.3110001 3.9564681e-39
0.64301431 0.023722859 1.3110001 3.6809813e-39
0.64551145 0.023722859 1.3110001 3.8661082e-39
0.64800864 0.023722859 1.3110001 4.0501225e-39
0.71490568 0.028379999 1.419 3.2196262e-39
0.69842577 0.030951429 1.4130001 3.4965802e-39
0.70111716 0.030951429 1.4130001 3.5887702e-39
0.71220285 0.031082857 1.419 3.035595e-39
0.71490568 0.031082857 1.419 2.6671768e-39
0.71760857 0.031082857 1.419 2.3905956e-39
0.69573432 0.033642862 1.4130001 3.6798924e-39
0.69842577 0.033642862 1.4130001 3.2207136e-39
0.70111716 0.033642862 1.4130001 3.3125477e-39
0.70650005 0.033642862 1.4130001 2.9448371e-39
0.7091915 0.033642862 1.4130001 2.4842233e-39
0.71188289 0.033642862 1.4130001 2.2072819e-39
0.71457434 0.033642862 1.4130001 2.0232522e-39
0.71726573 0.033642862 1.4130001 1.8395826e-39
0.69573432 0.036334287 1.4130001 3.9546759e-39
0.69842577 0.036334287 1.4130001 3.4947837e-39
0.70111716 0.036334287 1.4130001 3.6795337e-39
0.70380867 0.036334287 1.4130001 3.8628404e-39
0.70950001 0.03648857 1.419 3.2192688e-39
0.7091915 0.036334287 1.4130001 2.6678957e-39
0.71188289 0.036334287 1.4130001 2.2991174e-39
0.71457434 0.036334287 1.4130001 1.9310579e-39
0.71726573 0.036334287 1.4130001 1.7481044e-39
0.71624291 0.035614289 1.3850001 2.024334e-39
0.67744285 0.039688572 1.437 4.3252633e-39
0.69573432 0.03902572 1.4130001 4.2294607e-39
0.69842577 0.03902572 1.4130001 3.8617642e-39
0.70111716 0.03902572 1.4130001 4.0468743e-39
0.70380867 0.03902572 1.4130001 4.3209416e-39
0.70950001 0.039191429 1.419 3.5855374e-39
0.7091915 0.03902572 1.4130001 2.8504933e-39
0.71188289 0.03902572 1.4130001 2.2994789e-39
0.71153998 0.038860001 1.4070001 1.8403e-39
0.71422005 0.038860001 1.4070001 1.6566291e-39
0.71690005 0.038860001 1.4070001 1.5651523e-39
0.71360481 0.038252383 1.3850001 1.8399427e-39
0.71314007 0.038086668 1.3790001 2.2080036e-39
0.71576673 0.038086668 1.3790001 2.301274e-39
0.6775229 0.042602859 1.4430001 6.3485238e-39
0.68027145 0.042602859 1.4430001 6.8098467e-39
0.69842577 0.041717146 1.4130001 4.0454338e-39
0.70111716 0.041717146 1.4130001 3.8621271e-39
0.70380867 0.041717146 1.4130001 3.7692126e-39
0.70950001 0.041894287 1.419 3.126004e-39
0.7091915 0.041717146 1.4130001 2.4831541e-39
0.71188289 0.041717146 1.4130001 1.8399455e-39
0.71457434 0.041717146 1.4130001 1.2878549e-39
0.71726573 0.041717146 1.4130001 1.3807652e-39
0.71314007 0.040713333 1.3790001 2.0246899e-39
0.71576673 0.040713333 1.3790001 2.2087196e-39
0.6775229 0.045351431 1.4430001 8.1988642e-39
0.68027145 0.045351431 1.4430001 9.3070082e-39
0.68302 0.045351431 1.4430001 1.124203e-38
0.69573432 0.044408575 1.4130001 5.0542061e-39
0.69842577 0.044408575 1.4130001 4.2287544e-39
0.70111716 0.044408575 1.4130001 3.7706461e-39
0.70380867 0.044408575 1.4130001 3.3114673e-39
0.70950001 0.044597141 1.419 2.6686174e-39
0.7091915 0.044408575 1.4130001 2.1161681e-39
0.71188289 0.044408575 1.4130001 1.4726007e-39
0.71457434 0.044408575 1.4130001 8.2939353e-40
0.71726573 0.044408575 1.4130001 1.1967355e-39
0.7157886 0.043182861 1.3740001 2.3005565e-39
0.69598573 0.0473 1.419 6.4482669e-39
0.69868857 0.0473 1.419 4.8698415e-39
0.69842577 0.0471 1.4130001 3.3100505e-39
0.70111716 0.0471 1.4130001 3.0355992e-39
0.70380867 0.0471 1.4130001 2.8537205e-39
0.70950001 0.0473 1.419 2.4842261e-39
0.7091915 0.0471 1.4130001 2.116524e-39
0.71188289 0.0471 1.4130001 1.9328516e-39
0.71457434 0.0471 1.4130001 1.749182e-39
0.71726573 0.0471 1.4130001 1.8406602e-39
0.71317142 0.045800004 1.3740001 1.7488219e-39
0.7157886 0.045800004 1.3740001 1.9328544e-39
0.7013914 0.050002858 1.419 2.4835283e-39
0.70409429 0.050002858 1.419 2.3923892e-39
0.70380867 0.049791433 1.4130001 2.391313e-39
0.70950001 0.050002858 1.419 2.206926e-39
0.7091915 0.049791433 1.4130001 2.1168827e-39
0.71188289 0.049791433 1.4130001 2.3920291e-39
0.71457434 0.049791433 1.4130001 2.7593725e-39
0.71726573 0.049791433 1.4130001 2.5760616e-39
0.70707148 0.052928574 1.4250001 2.9430421e-39
0.70679718 0.052705713 1.419 2.9416085e-39
0.70950001 0.052705713 1.419 2.9426861e-39
0.7091915 0.052482858 1.4130001 2.8522842e-39
0.71188289 0.052482858 1.4130001 3.220701e-39
0.71457434 0.052482858 1.4130001 3.497285e-39
0.70679718 0.055408571 1.419 3.5862507e-39
0.70950001 0.055408571 1.419 3.5869709e-39
0.7091915 0.055174291 1.4130001 3.6798826e-39
0.71188289 0.055174291 1.4130001 3.9568255e-39
0.71457434 0.055174291 1.4130001 4.3234514e-39
0.70679718 0.058111429 1.419 4.3252408e-39
0.70950001 0.058111429 1.419 4.1415726e-39
0.71220285 0.058111429 1.419 3.9582632e-39
0.71490568 0.058111429 1.419 4.2337725e-39
