# .PCD v0.7 - Point Cloud Data file format
VERSION 0.7
FIELDS x y z rgb
SIZE 4 4 4 4
TYPE F F F F
COUNT 1 1 1 1
WIDTH 1073
HEIGHT 1
VIEWPOINT 0 0 0 1 0 0 0
POINTS 1073
DATA ascii
0.071100004 0.0011285715 1.1850001 2.3232939e-38
0.073357143 0.0011285715 1.1850001 2.31411e-38
0.075869523 0.0011323809 1.189 2.3141099e-38
0.078134283 0.0011323809 1.189 2.3141099e-38
0.080399044 0.0011323809 1.189 2.3232934e-38
0.082663804 0.0011323809 1.189 2.3232936e-38
0.084928572 0.0011323809 1.189 2.3232937e-38
0.087193333 0.0011323809 1.189 2.3233297e-38
0.089759052 0.0011361905 1.1930001 2.3232939e-38
0.092031434 0.0011361905 1.1930001 2.3232939e-38
0.094303817 0.0011361905 1.1930001 2.3232939e-38
0.096576199 0.0011361905 1.1930001 2.3232939e-38
0.098848581 0.0011361905 1.1930001 2.3232939e-38
0.10112096 0.0011361905 1.1930001 2.3233299e-38
0.10339334 0.0011361905 1.1930001 2.3232936e-38
0.10566572 0.0011361905 1.1930001 2.3232933e-38
0.10757619 0.0011323809 1.189 2.3232929e-38
0.10984095 0.0011323809 1.189 2.3232926e-38
0.11210571 0.0011323809 1.189 2.3232922e-38
0.11437048 0.0011323809 1.189 2.3232919e-38
0.11663524 0.0011323809 1.189 2.3233274e-38
0.1185 0.0011285715 1.1850001 2.3233628e-38
0.12075715 0.0011285715 1.1850001 2.3325081e-38
0.12259907 0.001124762 1.1810001 2.3325057e-38
0.12484859 0.001124762 1.1810001 2.3416179e-38
0.12803333 0.0011133334 1.169 2.3323624e-38
0.13026001 0.0011133334 1.169 2.3320747e-38
0.13248667 0.0011133334 1.169 2.3321104e-38
0.13471334 0.0011133334 1.169 2.3321461e-38
0.13694 0.0011133334 1.169 2.3407518e-38
0.052326668 0.0033399998 1.169 2.332438e-38
0.054553334 0.0033399998 1.169 2.3232548e-38
0.059410479 0.0033628573 1.177 2.3232559e-38
0.061861914 0.003374286 1.1810001 2.3232566e-38
0.064111434 0.003374286 1.1810001 2.3140737e-38
0.066360958 0.003374286 1.1810001 2.314146e-38
0.068842858 0.0033857145 1.1850001 2.3141107e-38
0.071100004 0.0033857145 1.1850001 2.3141462e-38
0.073604763 0.0033971427 1.189 2.314074e-38
0.075869523 0.0033971427 1.189 2.3140739e-38
0.078134283 0.0033971427 1.189 2.3140739e-38
0.080399044 0.0033971427 1.189 2.3140739e-38
0.082941905 0.0034085717 1.1930001 2.3141099e-38
0.085214287 0.0034085717 1.1930001 2.3232936e-38
0.087486669 0.0034085717 1.1930001 2.3232937e-38
0.089759052 0.0034085717 1.1930001 2.3232937e-38
0.09234 0.00342 1.197 2.3232937e-38
0.094620004 0.00342 1.197 2.3232937e-38
0.096576199 0.0034085717 1.1930001 2.3232937e-38
0.098848581 0.0034085717 1.1930001 2.3232937e-38
0.10112096 0.0034085717 1.1930001 2.3232939e-38
0.10566572 0.0034085717 1.1930001 2.323293e-38
0.10757619 0.0033971427 1.189 2.3232927e-38
0.10984095 0.0033971427 1.189 2.3232925e-38
0.11248287 0.0034085717 1.1930001 2.323292e-38
0.11475525 0.0034085717 1.1930001 2.3232916e-38
0.11663524 0.0033971427 1.189 2.3233272e-38
0.1189 0.0033971427 1.189 2.3233271e-38
0.12075715 0.0033857145 1.1850001 2.3325071e-38
0.12259907 0.003374286 1.1810001 2.3324679e-38
0.12484859 0.003374286 1.1810001 2.341653e-38
0.12580666 0.0033399998 1.169 2.3324351e-38
0.12803333 0.0033399998 1.169 2.3231436e-38
0.13026001 0.0033399998 1.169 2.3228565e-38
0.13248667 0.0033399998 1.169 2.3321117e-38
0.13647144 0.0033285718 1.1650001 2.3412906e-38
0.13869049 0.0033285718 1.1650001 2.2663112e-38
0.052326668 0.0055666668 1.169 2.3416932e-38
0.059410479 0.0056047621 1.177 2.3232552e-38
0.064111434 0.00562381 1.1810001 2.3232566e-38
0.066360958 0.00562381 1.1810001 2.3232569e-38
0.068842858 0.0056428574 1.1850001 2.3141096e-38
0.071100004 0.0056428574 1.1850001 2.3140737e-38
0.073604763 0.0056619048 1.189 2.3140739e-38
0.075869523 0.0056619048 1.189 2.3232573e-38
0.078134283 0.0056619048 1.189 2.3140737e-38
0.080669522 0.0056809527 1.1930001 2.314074e-38
0.082941905 0.0056809527 1.1930001 2.31411e-38
0.085214287 0.0056809527 1.1930001 2.3232936e-38
0.087486669 0.0056809527 1.1930001 2.3232936e-38
0.089759052 0.0056809527 1.1930001 2.3232936e-38
0.09234 0.0057000001 1.197 2.3232936e-38
0.094620004 0.0057000001 1.197 2.3232934e-38
0.096576199 0.0056809527 1.1930001 2.3232934e-38
0.098848581 0.0056809527 1.1930001 2.3232937e-38
0.10112096 0.0056809527 1.1930001 2.3233299e-38
0.10339334 0.0056809527 1.1930001 2.3232934e-38
0.10566572 0.0056809527 1.1930001 2.323293e-38
0.1079381 0.0056809527 1.1930001 2.3232925e-38
0.11021049 0.0056809527 1.1930001 2.323292e-38
0.11248287 0.0056809527 1.1930001 2.3232913e-38
0.11475525 0.0056809527 1.1930001 2.3232908e-38
0.11663524 0.0056619048 1.189 2.3325101e-38
0.1189 0.0056619048 1.189 2.3325101e-38
0.12075715 0.0056428574 1.1850001 2.332508e-38
0.12259907 0.00562381 1.1810001 2.33247e-38
0.12484859 0.00562381 1.1810001 2.3416188e-38
0.12803333 0.0055666668 1.169 2.3231078e-38
0.13026001 0.0055666668 1.169 2.3228551e-38
0.13248667 0.0055666668 1.169 2.3322184e-38
0.13471334 0.0055666668 1.169 2.3324701e-38
0.13647144 0.0055476194 1.1650001 2.3413623e-38
0.13869049 0.0055476194 1.1650001 2.2572713e-38
0.059612386 0.007873334 1.1810001 2.332438e-38
0.061861914 0.007873334 1.1810001 2.3324387e-38
0.064328574 0.0078999996 1.1850001 2.3232559e-38
0.066585712 0.0078999996 1.1850001 2.3232202e-38
0.068842858 0.0078999996 1.1850001 2.3140726e-38
0.071100004 0.0078999996 1.1850001 2.3140732e-38
0.075869523 0.0079266662 1.189 2.3232573e-38
0.078134283 0.0079266662 1.189 2.3140737e-38
0.080669522 0.0079533337 1.1930001 2.3141099e-38
0.082941905 0.0079533337 1.1930001 2.3141103e-38
0.085500002 0.0079799993 1.197 2.3232937e-38
0.087779999 0.0079799993 1.197 2.3232936e-38
0.090060003 0.0079799993 1.197 2.3232934e-38
0.09234 0.0079799993 1.197 2.3232576e-38
0.094620004 0.0079799993 1.197 2.3232574e-38
0.096900001 0.0079799993 1.197 2.3232573e-38
0.098848581 0.0079533337 1.1930001 2.3232937e-38
0.10112096 0.0079533337 1.1930001 2.3232943e-38
0.10339334 0.0079533337 1.1930001 2.3232936e-38
0.10566572 0.0079533337 1.1930001 2.323293e-38
0.1079381 0.0079533337 1.1930001 2.3232923e-38
0.11021049 0.0079533337 1.1930001 2.3232918e-38
0.11248287 0.0079533337 1.1930001 2.3232908e-38
0.11475525 0.0079533337 1.1930001 2.3232899e-38
0.11702763 0.0079533337 1.1930001 2.3325094e-38
0.1189 0.0079266662 1.189 2.3233259e-38
0.12075715 0.0078999996 1.1850001 2.3233251e-38
0.12259907 0.007873334 1.1810001 2.332508e-38
0.12484859 0.007873334 1.1810001 2.3325445e-38
0.12803333 0.0077933338 1.169 2.3322554e-38
0.13026001 0.0077933338 1.169 2.3322885e-38
0.13248667 0.0077933338 1.169 2.3323612e-38
0.13471334 0.0077933338 1.169 2.3323265e-38
0.13694 0.0077933338 1.169 2.3414701e-38
0.061861914 0.010122858 1.1810001 2.3416949e-38
0.064328574 0.010157144 1.1850001 2.33244e-38
0.066585712 0.010157144 1.1850001 2.3232563e-38
0.069075234 0.010191428 1.189 2.3232563e-38
0.071339995 0.010191428 1.189 2.3232569e-38
0.073604763 0.010191428 1.189 2.3232574e-38
0.075869523 0.010191428 1.189 2.3232571e-38
0.078397147 0.010225714 1.1930001 2.3232569e-38
0.080669522 0.010225714 1.1930001 2.323257e-38
0.083220005 0.010260001 1.197 2.3232573e-38
0.085500002 0.010260001 1.197 2.3232573e-38
0.087779999 0.010260001 1.197 2.3232573e-38
0.090060003 0.010260001 1.197 2.3232571e-38
0.09234 0.010260001 1.197 2.323257e-38
0.094620004 0.010260001 1.197 2.3232569e-38
0.096900001 0.010260001 1.197 2.3232569e-38
0.098848581 0.010225714 1.1930001 2.3232932e-38
0.10112096 0.010225714 1.1930001 2.3233295e-38
0.10339334 0.010225714 1.1930001 2.3232932e-38
0.10566572 0.010225714 1.1930001 2.3232927e-38
0.1079381 0.010225714 1.1930001 2.3232923e-38
0.11021049 0.010225714 1.1930001 2.3232919e-38
0.11248287 0.010225714 1.1930001 2.3232912e-38
0.11475525 0.010225714 1.1930001 2.3232906e-38
0.11663524 0.010191428 1.189 2.3325099e-38
0.1189 0.010191428 1.189 2.3233262e-38
0.12075715 0.010157144 1.1850001 2.3233254e-38
0.12259907 0.010122858 1.1810001 2.3233245e-38
0.12484859 0.010122858 1.1810001 2.3325087e-38
0.12803333 0.01002 1.169 2.3416911e-38
0.13471334 0.01002 1.169 2.3413258e-38
0.062071431 0.012414286 1.1850001 2.3417675e-38
0.064545713 0.012456191 1.189 2.3325483e-38
0.066810474 0.012456191 1.189 2.332512e-38
0.069075234 0.012456191 1.189 2.3324759e-38
0.071339995 0.012456191 1.189 2.3324764e-38
0.073604763 0.012456191 1.189 2.3324413e-38
0.075869523 0.012456191 1.189 2.3324407e-38
0.078397147 0.012498097 1.1930001 2.3232566e-38
0.080669522 0.012498097 1.1930001 2.3232566e-38
0.083220005 0.01254 1.197 2.3232566e-38
0.085500002 0.01254 1.197 2.3232567e-38
0.087779999 0.01254 1.197 2.323257e-38
0.090060003 0.01254 1.197 2.3232567e-38
0.09234 0.01254 1.197 2.3232564e-38
0.094620004 0.01254 1.197 2.3232923e-38
0.096900001 0.01254 1.197 2.3232925e-38
0.099179998 0.01254 1.197 2.3232926e-38
0.10146 0.01254 1.197 2.3232929e-38
0.10339334 0.012498097 1.1930001 2.3232927e-38
0.10602 0.01254 1.197 2.3232926e-38
0.1083 0.01254 1.197 2.3232923e-38
0.11021049 0.012498097 1.1930001 2.3232922e-38
0.11475525 0.012498097 1.1930001 2.3324749e-38
0.11702763 0.012498097 1.1930001 2.3325103e-38
0.1189 0.012456191 1.189 2.3325101e-38
0.12075715 0.012414286 1.1850001 2.332545e-38
0.12301429 0.012414286 1.1850001 2.3325441e-38
0.12484859 0.012372382 1.1810001 2.3325804e-38
0.13068001 0.011880001 1.1340001 2.2114597e-38
0.13284001 0.011880001 1.1340001 2.2654857e-38
0.052920002 0.014040001 1.1340001 1.7222959e-38
0.064545713 0.014720952 1.189 2.3417631e-38
0.066810474 0.014720952 1.189 2.3417654e-38
0.069075234 0.014720952 1.189 2.3417676e-38
0.071339995 0.014720952 1.189 2.3417677e-38
0.073604763 0.014720952 1.189 2.3417679e-38
0.075869523 0.014720952 1.189 2.3416959e-38
0.078397147 0.014770477 1.1930001 2.3324401e-38
0.080940001 0.014820001 1.197 2.3324401e-38
0.083220005 0.014820001 1.197 2.3232566e-38
0.085500002 0.014820001 1.197 2.3232566e-38
0.088146664 0.014881905 1.202 2.3232567e-38
0.09043619 0.014881905 1.202 2.3232563e-38
0.092725717 0.014881905 1.202 2.323256e-38
0.095015235 0.014881905 1.202 2.3232919e-38
0.097304761 0.014881905 1.202 2.323292e-38
0.099179998 0.014820001 1.197 2.323292e-38
0.10146 0.014820001 1.197 2.323256e-38
0.10374 0.014820001 1.197 2.3232563e-38
0.10602 0.014820001 1.197 2.3232566e-38
0.1083 0.014820001 1.197 2.3232567e-38
0.11058 0.014820001 1.197 2.3232569e-38
0.11286 0.014820001 1.197 2.332476e-38
0.11475525 0.014770477 1.1930001 2.3325116e-38
0.11702763 0.014770477 1.1930001 2.3417306e-38
0.12075715 0.014671429 1.1850001 2.3417651e-38
0.12301429 0.014671429 1.1850001 2.341764e-38
0.13068001 0.014040001 1.1340001 2.0907471e-38
0.13284001 0.014040001 1.1340001 2.192161e-38
0.13500002 0.014040001 1.1340001 2.2109232e-38
0.050760005 0.0162 1.1340001 1.4148848e-38
0.052920002 0.0162 1.1340001 1.5351718e-38
0.054934289 0.016157143 1.131 1.6646785e-38
0.069307618 0.017042857 1.1930001 2.1762849e-38
0.07158 0.017042857 1.1930001 2.277483e-38
0.073852383 0.017042857 1.1930001 2.3050334e-38
0.076124765 0.017042857 1.1930001 2.3417675e-38
0.078397147 0.017042857 1.1930001 2.3325838e-38
0.080940001 0.017099999 1.197 2.3325838e-38
0.083220005 0.017099999 1.197 2.3325838e-38
0.085857145 0.017171429 1.202 2.3325836e-38
0.088146664 0.017171429 1.202 2.3325476e-38
0.09043619 0.017171429 1.202 2.3325113e-38
0.092725717 0.017171429 1.202 2.3325109e-38
0.095015235 0.017171429 1.202 2.332511e-38
0.097304761 0.017171429 1.202 2.3325112e-38
0.099179998 0.017099999 1.197 2.3325108e-38
0.10146 0.017099999 1.197 2.3325105e-38
0.10374 0.017099999 1.197 2.3325471e-38
0.10602 0.017099999 1.197 2.3325478e-38
0.1083 0.017099999 1.197 2.332584e-38
0.11058 0.017099999 1.197 2.3325846e-38
0.11286 0.017099999 1.197 2.3325843e-38
0.11514 0.017099999 1.197 2.3325842e-38
0.11702763 0.017042857 1.1930001 2.3417673e-38
0.1242 0.0162 1.1340001 1.8869484e-38
0.12636001 0.0162 1.1340001 1.867968e-38
0.12852001 0.0162 1.1340001 1.8490304e-38
0.13068001 0.0162 1.1340001 2.0451172e-38
0.13284001 0.0162 1.1340001 2.2480161e-38
0.13500002 0.0162 1.1340001 2.2570201e-38
0.048600003 0.018360002 1.1340001 1.8507421e-38
0.050760005 0.018360002 1.1340001 1.405412e-38
0.052920002 0.018360002 1.1340001 1.3594946e-38
0.054934289 0.01831143 1.131 1.3134355e-38
0.057088573 0.01831143 1.131 1.4051296e-38
0.059033338 0.018246669 1.1270001 1.5078357e-38
0.06096286 0.018181903 1.123 1.6564954e-38
0.062933333 0.018133335 1.12 1.8049451e-38
0.065066665 0.018133335 1.12 2.0084961e-38
0.07158 0.019315239 1.1930001 2.2115416e-38
0.073852383 0.019315239 1.1930001 2.2768697e-38
0.076124765 0.019315239 1.1930001 2.3414417e-38
0.078660004 0.019380001 1.197 2.3417647e-38
0.080940001 0.019380001 1.197 2.3417654e-38
0.083567619 0.019460952 1.202 2.3417659e-38
0.085857145 0.019460952 1.202 2.3417656e-38
0.088146664 0.019460952 1.202 2.3417652e-38
0.09043619 0.019460952 1.202 2.3417648e-38
0.092725717 0.019460952 1.202 2.3417645e-38
0.095015235 0.019460952 1.202 2.3417641e-38
0.097304761 0.019460952 1.202 2.3417637e-38
0.099594288 0.019460952 1.202 2.341764e-38
0.10188381 0.019460952 1.202 2.3417642e-38
0.10417333 0.019460952 1.202 2.3417651e-38
0.10646286 0.019460952 1.202 2.3417659e-38
0.1083 0.019380001 1.197 2.3417647e-38
0.11058 0.019380001 1.197 2.3417634e-38
0.11286 0.019380001 1.197 2.3417627e-38
0.11514 0.019380001 1.197 2.341762e-38
0.112 0.018133335 1.12 2.3317902e-38
0.11413334 0.018133335 1.12 2.3212756e-38
0.1165781 0.018181903 1.123 2.0903916e-38
0.11914001 0.018246669 1.1270001 1.858178e-38
0.12387143 0.01831143 1.131 1.4424022e-38
0.12602572 0.01831143 1.131 1.5710806e-38
0.12818 0.01831143 1.131 1.7121387e-38
0.13068001 0.018360002 1.1340001 2.0087071e-38
0.13284001 0.018360002 1.1340001 2.3031897e-38
0.13500002 0.018360002 1.1340001 2.3121931e-38
0.13716 0.018360002 1.1340001 2.3213773e-38
0.048600003 0.020520002 1.1340001 1.8599989e-38
0.050760005 0.020520002 1.1340001 1.4418571e-38
0.052920002 0.020520002 1.1340001 1.4055143e-38
0.054934289 0.020465715 1.131 1.3693179e-38
0.057088573 0.020465715 1.131 1.4147691e-38
0.06096286 0.020320952 1.123 1.5336888e-38
0.062933333 0.020266667 1.12 1.6163485e-38
0.065066665 0.020266667 1.12 1.7184514e-38
0.067199998 0.020266667 1.12 1.8205527e-38
0.069333337 0.020266667 1.12 1.849652e-38
0.085857145 0.021750478 1.202 1.9548712e-38
0.095015235 0.021750478 1.202 2.0478883e-38
0.097304761 0.021750478 1.202 2.057071e-38
0.099594288 0.021750478 1.202 2.0662554e-38
0.10188381 0.021750478 1.202 2.0570728e-38
0.10417333 0.021750478 1.202 2.0570738e-38
0.10646286 0.021750478 1.202 2.0290936e-38
0.10986666 0.020266667 1.12 1.9242649e-38
0.112 0.020266667 1.12 1.8943121e-38
0.11413334 0.020266667 1.12 1.8735709e-38
0.1165781 0.020320952 1.123 1.7725097e-38
0.11871714 0.020320952 1.123 1.6622648e-38
0.12128668 0.020393334 1.1270001 1.5621363e-38
0.12387143 0.020465715 1.131 1.4524417e-38
0.12602572 0.020465715 1.131 1.5997072e-38
0.12818 0.020465715 1.131 1.7589537e-38
0.13033429 0.020465715 1.131 2.0272191e-38
0.13284001 0.020520002 1.1340001 2.2940785e-38
0.13500002 0.020520002 1.1340001 2.2846064e-38
0.13716 0.020520002 1.1340001 2.2752806e-38
0.048600003 0.022680001 1.1340001 1.8692561e-38
0.050760005 0.022680001 1.1340001 1.4881703e-38
0.052920002 0.022680001 1.1340001 1.4607589e-38
0.055080004 0.022680001 1.1340001 1.4340331e-38
0.057088573 0.022620002 1.131 1.424957e-38
0.059242859 0.022620002 1.131 1.4243483e-38
0.06096286 0.022460001 1.123 1.4237753e-38
0.06310191 0.022460001 1.123 1.4328182e-38
0.065240949 0.022460001 1.123 1.4326775e-38
0.067199998 0.022400001 1.12 1.4418641e-38
0.069333337 0.022400001 1.12 1.4234999e-38
0.071466669 0.022400001 1.12 1.405169e-38
0.075462863 0.02232 1.1160001 1.4704233e-38
0.077380002 0.022260001 1.113 1.5172744e-38
0.079500005 0.022260001 1.113 1.5638386e-38
0.08162 0.022260001 1.113 1.6287698e-38
0.083740003 0.022260001 1.113 1.7027416e-38
0.085551441 0.02218 1.1090001 1.7307957e-38
0.087663814 0.02218 1.1090001 1.7583461e-38
0.089776196 0.02218 1.1090001 1.7675654e-38
0.10188381 0.024040001 1.202 1.7766386e-38
0.10417333 0.024040001 1.202 1.7669527e-38
0.10646286 0.024040001 1.202 1.7205326e-38
0.10773333 0.022400001 1.12 1.5429915e-38
0.10986666 0.022400001 1.12 1.5061862e-38
0.1123 0.022460001 1.123 1.4694168e-38
0.11443905 0.022460001 1.123 1.4418637e-38
0.1165781 0.022460001 1.123 1.4602282e-38
0.11914001 0.022540001 1.1270001 1.4792739e-38
0.12171714 0.022620002 1.131 1.4707687e-38
0.12387143 0.022620002 1.131 1.4705951e-38
0.12602572 0.022620002 1.131 1.6375191e-38
0.12818 0.022620002 1.131 1.8054104e-38
0.13033429 0.022620002 1.131 2.0457297e-38
0.13284001 0.022680001 1.1340001 2.29372e-38
0.13500002 0.022680001 1.1340001 2.2662037e-38
0.13716 0.022680001 1.1340001 2.238582e-38
0.050760005 0.024840001 1.1340001 1.5253001e-38
0.052920002 0.024840001 1.1340001 1.4702293e-38
0.055080004 0.024840001 1.1340001 1.4160965e-38
0.057240006 0.024840001 1.1340001 1.397514e-38
0.059242859 0.024774285 1.131 1.3882249e-38
0.06310191 0.024599047 1.123 1.4334971e-38
0.065240949 0.024599047 1.123 1.4331362e-38
0.067379996 0.024599047 1.123 1.4419609e-38
0.06951905 0.024599047 1.123 1.4418892e-38
0.071466669 0.024533333 1.12 1.4510369e-38
0.073600002 0.024533333 1.12 1.469404e-38
0.075462863 0.024445714 1.1160001 1.4877711e-38
0.077588573 0.024445714 1.1160001 1.5153217e-38
0.079500005 0.02438 1.113 1.5428743e-38
0.08162 0.02438 1.113 1.5796105e-38
0.085859999 0.02438 1.113 1.6347172e-38
0.087663814 0.024292383 1.1090001 1.6530848e-38
0.089776196 0.024292383 1.1090001 1.6530853e-38
0.091888577 0.024292383 1.1090001 1.6530818e-38
0.094340004 0.02438 1.113 1.6438948e-38
0.096460007 0.02438 1.113 1.6347099e-38
0.098580003 0.02438 1.113 1.6163416e-38
0.10097143 0.024445714 1.1160001 1.6071576e-38
0.10309715 0.024445714 1.1160001 1.5887901e-38
0.1056 0.024533333 1.12 1.5704231e-38
0.10773333 0.024533333 1.12 1.5428726e-38
0.11016095 0.024599047 1.123 1.515322e-38
0.1123 0.024599047 1.123 1.4973854e-38
0.11443905 0.024599047 1.123 1.479486e-38
0.1165781 0.024599047 1.123 1.4891373e-38
0.12171714 0.024774285 1.131 1.4709139e-38
0.12387143 0.024774285 1.131 1.4428667e-38
0.12602572 0.024774285 1.131 1.6836895e-38
0.12818 0.024774285 1.131 1.9253713e-38
0.13033429 0.024774285 1.131 2.1101582e-38
0.13248858 0.024774285 1.131 2.2939713e-38
0.13464285 0.024774285 1.131 2.2569847e-38
0.050939046 0.027095238 1.138 1.5623929e-38
0.053106666 0.027095238 1.138 1.4797356e-38
0.055080004 0.027000003 1.1340001 1.4068424e-38
0.057240006 0.027000003 1.1340001 1.3792573e-38
0.059400003 0.027000003 1.1340001 1.3513485e-38
0.061397146 0.026928572 1.131 1.3879396e-38
0.065240949 0.026738096 1.123 1.4335673e-38
0.067379996 0.026738096 1.123 1.4427513e-38
0.06951905 0.026738096 1.123 1.4703025e-38
0.071466669 0.026666667 1.12 1.506893e-38
0.073600002 0.026666667 1.12 1.5067495e-38
0.075462863 0.02657143 1.1160001 1.5064983e-38
0.077588573 0.02657143 1.1160001 1.5154663e-38
0.079714291 0.02657143 1.1160001 1.5337621e-38
0.08162 0.0265 1.113 1.5336908e-38
0.083740003 0.0265 1.113 1.5428756e-38
0.085859999 0.0265 1.113 1.5520605e-38
0.087980002 0.0265 1.113 1.5612444e-38
0.090100005 0.0265 1.113 1.5428777e-38
0.092220001 0.0265 1.113 1.5336936e-38
0.094340004 0.0265 1.113 1.515326e-38
0.096460007 0.0265 1.113 1.5061419e-38
0.098580003 0.0265 1.113 1.5245443e-38
0.10097143 0.02657143 1.1160001 1.5521663e-38
0.10309715 0.02657143 1.1160001 1.5614569e-38
0.1056 0.026666667 1.12 1.5708198e-38
0.10773333 0.026666667 1.12 1.5434844e-38
0.11016095 0.026738096 1.123 1.5255119e-38
0.1123 0.026738096 1.123 1.5259426e-38
0.11443905 0.026738096 1.123 1.5260506e-38
0.1165781 0.026738096 1.123 1.5170108e-38
0.11914001 0.026833337 1.1270001 1.5169744e-38
0.12171714 0.026928572 1.131 1.4618727e-38
0.12387143 0.026928572 1.131 1.4155675e-38
0.12602572 0.026928572 1.131 1.7298602e-38
0.12772667 0.026833337 1.1270001 2.0451885e-38
0.12987334 0.026833337 1.1270001 2.1654024e-38
0.053106666 0.029262858 1.138 1.498533e-38
0.055274285 0.029262858 1.138 1.3975885e-38
0.057441905 0.029262858 1.138 1.3884079e-38
0.059400003 0.029160002 1.1340001 1.3879403e-38
0.061397146 0.029082857 1.131 1.4154181e-38
0.065240949 0.028877143 1.123 1.4337113e-38
0.067379996 0.028877143 1.123 1.4428959e-38
0.06951905 0.028877143 1.123 1.4427894e-38
0.071466669 0.0288 1.12 1.4519369e-38
0.073600002 0.0288 1.12 1.4703399e-38
0.075733326 0.0288 1.12 1.4887424e-38
0.077866666 0.0288 1.12 1.4701597e-38
0.079714291 0.028697144 1.1160001 1.4607955e-38
0.081840008 0.028697144 1.1160001 1.4973851e-38
0.083965711 0.028697144 1.1160001 1.5431593e-38
0.086091429 0.028697144 1.1160001 1.5706024e-38
0.087980002 0.028620001 1.113 1.607265e-38
0.090100005 0.028620001 1.113 1.5797862e-38
0.092220001 0.028620001 1.113 1.5524533e-38
0.094340004 0.028620001 1.113 1.5343041e-38
0.096460007 0.028620001 1.113 1.5253718e-38
0.098580003 0.028620001 1.113 1.5345555e-38
0.10097143 0.028697144 1.1160001 1.5437744e-38
0.10309715 0.028697144 1.1160001 1.5436662e-38
0.1056 0.0288 1.12 1.5527777e-38
0.10773333 0.0288 1.12 1.5344822e-38
0.11016095 0.028877143 1.123 1.5165816e-38
0.1123 0.028877143 1.123 1.507506e-38
0.11443905 0.028877143 1.123 1.4984293e-38
0.1165781 0.028877143 1.123 1.4985721e-38
0.11914001 0.028980002 1.1270001 1.5079339e-38
0.12128668 0.028980002 1.1270001 1.4619792e-38
0.12343334 0.028980002 1.1270001 1.4158549e-38
0.12558001 0.028980002 1.1270001 1.7394045e-38
0.12727334 0.028877143 1.123 2.0732062e-38
0.12941237 0.028877143 1.123 2.193096e-38
0.055274285 0.031430475 1.138 1.3882976e-38
0.057441905 0.031430475 1.138 1.4067753e-38
0.059400003 0.031320002 1.1340001 1.4341809e-38
0.061560001 0.031320002 1.1340001 1.4340718e-38
0.063551433 0.031237142 1.131 1.4429316e-38
0.06547334 0.031126669 1.1270001 1.4430385e-38
0.067620009 0.031126669 1.1270001 1.4428956e-38
0.06951905 0.031016191 1.123 1.4153096e-38
0.071466669 0.030933332 1.12 1.3969071e-38
0.073600002 0.030933332 1.12 1.4338569e-38
0.075733326 0.030933332 1.12 1.470555e-38
0.077866666 0.030933332 1.12 1.4337846e-38
0.079999998 0.030933332 1.12 1.3966194e-38
0.081840008 0.030822858 1.1160001 1.4701948e-38
0.083965711 0.030822858 1.1160001 1.5432681e-38
0.086091429 0.030822858 1.1160001 1.5983687e-38
0.088217147 0.030822858 1.1160001 1.6625819e-38
0.090342864 0.030822858 1.1160001 1.6166284e-38
0.092468575 0.030822858 1.1160001 1.5708916e-38
0.094594292 0.030822858 1.1160001 1.552849e-38
0.096720003 0.030822858 1.1160001 1.5437022e-38
0.098845713 0.030822858 1.1160001 1.5437746e-38
0.10097143 0.030822858 1.1160001 1.5437026e-38
0.10346667 0.030933332 1.12 1.5344828e-38
0.1056 0.030933332 1.12 1.5344469e-38
0.10773333 0.030933332 1.12 1.5163311e-38
0.10986666 0.030933332 1.12 1.5073981e-38
0.1123 0.031016191 1.123 1.4890664e-38
0.11443905 0.031016191 1.123 1.4800625e-38
0.1165781 0.031016191 1.123 1.4893181e-38
0.11914001 0.031126669 1.1270001 1.4987867e-38
0.12171714 0.031237142 1.131 1.4529028e-38
0.12387143 0.031237142 1.131 1.4161057e-38
0.12602572 0.031237142 1.131 1.7581301e-38
0.12727334 0.031016191 1.123 2.1010076e-38
0.12941237 0.031016191 1.123 2.2116059e-38
0.13155143 0.031016191 1.123 2.3307042e-38
0.053293336 0.033716194 1.1420001 1.5161113e-38
0.055274285 0.033598095 1.138 1.3790426e-38
0.057441905 0.033598095 1.138 1.4065962e-38
0.059400003 0.033480003 1.1340001 1.4249974e-38
0.061560001 0.033480003 1.1340001 1.4155609e-38
0.063551433 0.033391427 1.131 1.4062692e-38
0.06547334 0.033273336 1.1270001 1.4245639e-38
0.067620009 0.033273336 1.1270001 1.4428953e-38
0.06951905 0.033155236 1.123 1.4244925e-38
0.071658097 0.033155236 1.123 1.4153456e-38
0.073797144 0.033155236 1.123 1.4427895e-38
0.075733326 0.033066668 1.12 1.4702683e-38
0.077866666 0.033066668 1.12 1.4518653e-38
0.079999998 0.033066668 1.12 1.4243147e-38
0.08213333 0.033066668 1.12 1.4793085e-38
0.08426667 0.033066668 1.12 1.5250097e-38
0.086400002 0.033066668 1.12 1.5709621e-38
0.088533334 0.033066668 1.12 1.6169157e-38
0.090666659 0.033066668 1.12 1.5434116e-38
0.092799999 0.033066668 1.12 1.4699439e-38
0.094594292 0.032948572 1.1160001 1.4977822e-38
0.097066663 0.033066668 1.12 1.5344102e-38
0.099200003 0.033066668 1.12 1.5344116e-38
0.10133334 0.033066668 1.12 1.5344114e-38
0.10346667 0.033066668 1.12 1.5252636e-38
0.1056 0.033066668 1.12 1.5161521e-38
0.10802191 0.033155236 1.123 1.488817e-38
0.11016095 0.033155236 1.123 1.4706997e-38
0.1123 0.033155236 1.123 1.4706627e-38
0.11443905 0.033155236 1.123 1.4708792e-38
0.1165781 0.033155236 1.123 1.4892476e-38
0.12171714 0.033391427 1.131 1.4713773e-38
0.12387143 0.033391427 1.131 1.4347596e-38
0.12602572 0.033391427 1.131 1.7772504e-38
0.053293336 0.035891429 1.1420001 1.525223e-38
0.055468574 0.035891429 1.1420001 1.3790775e-38
0.057643812 0.035891429 1.1420001 1.3975186e-38
0.059609525 0.035765715 1.138 1.4249246e-38
0.061560001 0.035640001 1.1340001 1.39705e-38
0.063551433 0.035545714 1.131 1.3787181e-38
0.06547334 0.035420001 1.1270001 1.4061605e-38
0.067620009 0.035420001 1.1270001 1.442859e-38
0.06976667 0.035420001 1.1270001 1.4428593e-38
0.071658097 0.035294287 1.123 1.4428959e-38
0.073797144 0.035294287 1.123 1.4611559e-38
0.075733326 0.0352 1.12 1.4794514e-38
0.078075238 0.035294287 1.123 1.4701244e-38
0.079999998 0.0352 1.12 1.4609415e-38
0.08213333 0.0352 1.12 1.4884211e-38
0.08426667 0.0352 1.12 1.5159341e-38
0.086400002 0.0352 1.12 1.543483e-38
0.088533334 0.0352 1.12 1.5801812e-38
0.090666659 0.0352 1.12 1.4699069e-38
0.092799999 0.0352 1.12 1.3690676e-38
0.094933331 0.0352 1.12 1.4427159e-38
0.097066663 0.0352 1.12 1.5252971e-38
0.099200003 0.0352 1.12 1.5252265e-38
0.10133334 0.0352 1.12 1.5251902e-38
0.10346667 0.0352 1.12 1.506787e-38
0.10588286 0.035294287 1.123 1.4978909e-38
0.10802191 0.035294287 1.123 1.4613008e-38
0.11016095 0.035294287 1.123 1.4340003e-38
0.1123 0.035294287 1.123 1.4522948e-38
0.11484668 0.035420001 1.1270001 1.4708428e-38
0.11699334 0.035420001 1.1270001 1.4892114e-38
0.11914001 0.035420001 1.1270001 1.5073616e-38
0.12171714 0.035545714 1.131 1.4796299e-38
0.1242 0.035640001 1.1340001 1.46292e-38
0.12636001 0.035640001 1.1340001 1.7964048e-38
0.12852001 0.035640001 1.1340001 2.1288082e-38
0.057643812 0.038066667 1.1420001 1.397481e-38
0.059609525 0.037933335 1.138 1.4248878e-38
0.061777141 0.037933335 1.138 1.4062334e-38
0.063720003 0.037800003 1.1340001 1.3970849e-38
0.065705717 0.037700001 1.131 1.4153078e-38
0.067620009 0.037566669 1.1270001 1.4335676e-38
0.06976667 0.037566669 1.1270001 1.4428233e-38
0.071913332 0.037566669 1.1270001 1.4428954e-38
0.073797144 0.037433334 1.123 1.4610836e-38
0.075936191 0.037433334 1.123 1.4703032e-38
0.078075238 0.037433334 1.123 1.4609405e-38
0.080214284 0.037433334 1.123 1.4517941e-38
0.082353331 0.037433334 1.123 1.4793103e-38
0.08426667 0.037333332 1.12 1.5164008e-38
0.086400002 0.037333332 1.12 1.5251875e-38
0.088533334 0.037333332 1.12 1.5435544e-38
0.090666659 0.037333332 1.12 1.4793411e-38
0.092799999 0.037333332 1.12 1.4243477e-38
0.094933331 0.037333332 1.12 1.4887046e-38
0.097066663 0.037333332 1.12 1.5624607e-38
0.099200003 0.037333332 1.12 1.5436281e-38
0.10133334 0.037333332 1.12 1.525332e-38
0.10374381 0.037433334 1.123 1.5160762e-38
0.10588286 0.037433334 1.123 1.5072163e-38
0.10802191 0.037433334 1.123 1.4888859e-38
0.11055334 0.037566669 1.1270001 1.4707692e-38
0.11270001 0.037566669 1.1270001 1.4799522e-38
0.11484668 0.037566669 1.1270001 1.4891735e-38
0.11699334 0.037566669 1.1270001 1.4983231e-38
0.11914001 0.037566669 1.1270001 1.4982865e-38
0.12204001 0.037800003 1.1340001 1.5076489e-38
0.1242 0.037800003 1.1340001 1.5186311e-38
0.12636001 0.037800003 1.1340001 1.8333164e-38
0.057845715 0.040382858 1.146 1.3976607e-38
0.061777141 0.040100951 1.138 1.4154527e-38
0.063720003 0.039960004 1.1340001 1.4153442e-38
0.065705717 0.039854284 1.131 1.4244551e-38
0.067620009 0.039713338 1.1270001 1.433639e-38
0.06976667 0.039713338 1.1270001 1.4428231e-38
0.071913332 0.039713338 1.1270001 1.4519355e-38
0.073797144 0.039572384 1.123 1.461048e-38
0.075936191 0.039572384 1.123 1.4702674e-38
0.078075238 0.039572384 1.123 1.451757e-38
0.080214284 0.039572384 1.123 1.4426452e-38
0.082353331 0.039572384 1.123 1.4794152e-38
0.084492385 0.039572384 1.123 1.5161126e-38
0.086400002 0.039466664 1.12 1.5160757e-38
0.088533334 0.039466664 1.12 1.516255e-38
0.090666659 0.039466664 1.12 1.4980672e-38
0.092799999 0.039466664 1.12 1.4795568e-38
0.094933331 0.039466664 1.12 1.53473e-38
0.097066663 0.039466664 1.12 1.598908e-38
0.099465713 0.039572384 1.123 1.5620671e-38
0.10160477 0.039572384 1.123 1.5345167e-38
0.10374381 0.039572384 1.123 1.5253694e-38
0.10588286 0.039572384 1.123 1.5164726e-38
0.10802191 0.039572384 1.123 1.5073246e-38
0.11055334 0.039713338 1.1270001 1.5074678e-38
0.11270001 0.039713338 1.1270001 1.5074676e-38
0.11484668 0.039713338 1.1270001 1.5167963e-38
0.11740857 0.039854284 1.131 1.5077222e-38
0.11956286 0.039854284 1.131 1.4982501e-38
0.12204001 0.039960004 1.1340001 1.5356645e-38
0.057845715 0.042565715 1.146 1.3884058e-38
0.063720003 0.042120002 1.1340001 1.4150928e-38
0.065705717 0.042008571 1.131 1.4151277e-38
0.067860007 0.042008571 1.131 1.4151642e-38
0.06976667 0.041860003 1.1270001 1.433496e-38
0.071913332 0.041860003 1.1270001 1.4517563e-38
0.074060008 0.041860003 1.1270001 1.4701601e-38
0.075936191 0.041711427 1.123 1.4794154e-38
0.078075238 0.041711427 1.123 1.506966e-38
0.080214284 0.041711427 1.123 1.5345153e-38
0.082353331 0.041711427 1.123 1.5345498e-38
0.084492385 0.041711427 1.123 1.5254024e-38
0.086631432 0.041711427 1.123 1.516291e-38
0.088770472 0.041711427 1.123 1.507215e-38
0.090909526 0.041711427 1.123 1.4796645e-38
0.093048573 0.041711427 1.123 1.4611539e-38
0.095187619 0.041711427 1.123 1.4977447e-38
0.097326666 0.041711427 1.123 1.5435199e-38
0.099465713 0.041711427 1.123 1.5343373e-38
0.10160477 0.041711427 1.123 1.5251909e-38
0.10374381 0.041711427 1.123 1.534591e-38
0.10588286 0.041711427 1.123 1.5532795e-38
0.10840668 0.041860003 1.1270001 1.5349469e-38
0.11055334 0.041860003 1.1270001 1.5166515e-38
0.1131 0.042008571 1.131 1.5167234e-38
0.11525429 0.042008571 1.131 1.5169043e-38
0.11740857 0.042008571 1.131 1.4984672e-38
0.11988001 0.042120002 1.1340001 1.4798467e-38
0.12725145 0.042417143 1.1420001 1.8977824e-38
0.051610474 0.045021903 1.153 1.7486833e-38
0.053806666 0.045021903 1.153 1.5444508e-38
0.055857148 0.044904765 1.1500001 1.3514547e-38
0.058047622 0.044904765 1.1500001 1.3791868e-38
0.065880001 0.044280004 1.1340001 1.4057652e-38
0.068039998 0.044280004 1.1340001 1.4060165e-38
0.070014283 0.044162858 1.131 1.4334957e-38
0.072168574 0.044162858 1.131 1.4609753e-38
0.074060008 0.044006672 1.1270001 1.4793071e-38
0.075936191 0.043850474 1.123 1.497783e-38
0.078075238 0.043850474 1.123 1.562141e-38
0.080214284 0.043850474 1.123 1.6356792e-38
0.082353331 0.043850474 1.123 1.5898314e-38
0.084492385 0.043850474 1.123 1.5436991e-38
0.086631432 0.043850474 1.123 1.5165079e-38
0.088770472 0.043850474 1.123 1.4980688e-38
0.090909526 0.043850474 1.123 1.4704461e-38
0.093048573 0.043850474 1.123 1.4518631e-38
0.095187619 0.043850474 1.123 1.4700142e-38
0.097326666 0.043850474 1.123 1.4884543e-38
0.099465713 0.043850474 1.123 1.497675e-38
0.10160477 0.043850474 1.123 1.5161497e-38
0.10411334 0.044006672 1.1270001 1.5530274e-38
0.10626 0.044006672 1.1270001 1.5898331e-38
0.10840668 0.044006672 1.1270001 1.5534215e-38
0.11055334 0.044006672 1.1270001 1.5258355e-38
0.1131 0.044162858 1.131 1.516832e-38
0.11525429 0.044162858 1.131 1.5169043e-38
0.11772001 0.044280004 1.1340001 1.4892107e-38
0.11988001 0.044280004 1.1340001 1.4616608e-38
0.12507619 0.044592384 1.1420001 1.6568167e-38
0.13033333 0.044904765 1.1500001 2.1930568e-38
0.13252382 0.044904765 1.1500001 2.2112466e-38
0.051610474 0.047218092 1.153 1.7856682e-38
0.053806666 0.047218092 1.153 1.5533832e-38
0.056002859 0.047218092 1.153 1.3330879e-38
0.058047622 0.047095243 1.1500001 1.3606409e-38
0.060238097 0.047095243 1.1500001 1.3973736e-38
0.065880001 0.046440002 1.1340001 1.4335674e-38
0.068039998 0.046440002 1.1340001 1.4427867e-38
0.070014283 0.046317145 1.131 1.4519703e-38
0.072168574 0.046317145 1.131 1.4611901e-38
0.074060008 0.046153337 1.1270001 1.4794141e-38
0.076206669 0.046153337 1.1270001 1.4978196e-38
0.078353338 0.046153337 1.1270001 1.5346282e-38
0.080500007 0.046153337 1.1270001 1.5710372e-38
0.082646675 0.046153337 1.1270001 1.5343725e-38
0.084492385 0.045989525 1.123 1.5069304e-38
0.086631432 0.045989525 1.123 1.4794168e-38
0.088770472 0.045989525 1.123 1.4611207e-38
0.090909526 0.045989525 1.123 1.4427171e-38
0.093048573 0.045989525 1.123 1.4331375e-38
0.095187619 0.045989525 1.123 1.442499e-38
0.097326666 0.045989525 1.123 1.4609394e-38
0.099465713 0.045989525 1.123 1.4793441e-38
0.10160477 0.045989525 1.123 1.497925e-38
0.10411334 0.046153337 1.1270001 1.5254385e-38
0.10626 0.046153337 1.1270001 1.5529541e-38
0.10840668 0.046153337 1.1270001 1.5347314e-38
0.11094572 0.046317145 1.131 1.5256926e-38
0.1134 0.046440002 1.1340001 1.5167255e-38
0.11556 0.046440002 1.1340001 1.5077567e-38
0.11772001 0.046440002 1.1340001 1.4709144e-38
0.11988001 0.046440002 1.1340001 1.433861e-38
0.13033333 0.047095243 1.1500001 2.2206074e-38
0.13252382 0.047095243 1.1500001 2.2204306e-38
0.13471429 0.047095243 1.1500001 2.2294699e-38
0.049414285 0.049414285 1.153 2.0820591e-38
0.051610474 0.049414285 1.153 1.8226178e-38
0.053806666 0.049414285 1.153 1.5623156e-38
0.056002859 0.049414285 1.153 1.3147202e-38
0.058199048 0.049414285 1.153 1.3513844e-38
0.060238097 0.049285717 1.1500001 1.38801e-38
0.062211428 0.049114283 1.146 1.415488e-38
0.065880001 0.048600003 1.1340001 1.4611185e-38
0.068039998 0.048600003 1.1340001 1.4794852e-38
0.070014283 0.048471428 1.131 1.4704087e-38
0.072168574 0.048471428 1.131 1.4703016e-38
0.074060008 0.048300002 1.1270001 1.4794138e-38
0.076206669 0.048300002 1.1270001 1.4977468e-38
0.078353338 0.048300002 1.1270001 1.5071115e-38
0.080500007 0.048300002 1.1270001 1.5160069e-38
0.082646675 0.048300002 1.1270001 1.4883475e-38
0.084492385 0.048128571 1.123 1.4699804e-38
0.086631432 0.048128571 1.123 1.4424298e-38
0.088770472 0.048128571 1.123 1.4241347e-38
0.090909526 0.048128571 1.123 1.4150232e-38
0.093048573 0.048128571 1.123 1.4149863e-38
0.095187619 0.048128571 1.123 1.4241691e-38
0.097326666 0.048128571 1.123 1.4425729e-38
0.099465713 0.048128571 1.123 1.4610126e-38
0.10196667 0.048300002 1.1270001 1.4794863e-38
0.10411334 0.048300002 1.1270001 1.4980677e-38
0.10626 0.048300002 1.1270001 1.5163278e-38
0.10879143 0.048471428 1.131 1.5162569e-38
0.11094572 0.048471428 1.131 1.5256214e-38
0.1134 0.048600003 1.1340001 1.5074353e-38
0.11556 0.048600003 1.1340001 1.4985026e-38
0.11772001 0.048600003 1.1340001 1.4526206e-38
0.12030286 0.048771426 1.138 1.4159975e-38
0.1255143 0.049114283 1.146 1.7498034e-38
0.12814288 0.049285717 1.1500001 1.9994471e-38
0.13033333 0.049285717 1.1500001 2.2575215e-38
0.13286953 0.049414285 1.153 2.2387982e-38
0.049414285 0.051610474 1.153 2.0636565e-38
0.051610474 0.051610474 1.153 1.8320527e-38
0.053806666 0.051610474 1.153 1.5900815e-38
0.056002859 0.051610474 1.153 1.3514896e-38
0.058199048 0.051610474 1.153 1.3790055e-38
0.060238097 0.051476192 1.1500001 1.4068427e-38
0.062211428 0.051297143 1.146 1.4060891e-38
0.064169526 0.051118098 1.1420001 1.415201e-38
0.066112377 0.050939046 1.138 1.424349e-38
0.068279997 0.050939046 1.138 1.4335316e-38
0.070200004 0.050760005 1.1340001 1.433459e-38
0.072168574 0.050625715 1.131 1.4333878e-38
0.074322857 0.050625715 1.131 1.4425719e-38
0.076206669 0.050446671 1.1270001 1.4609757e-38
0.078353338 0.050446671 1.1270001 1.4701601e-38
0.080500007 0.050446671 1.1270001 1.4793797e-38
0.082646675 0.050446671 1.1270001 1.4606898e-38
0.084793337 0.050446671 1.1270001 1.4514334e-38
0.086940005 0.050446671 1.1270001 1.4240251e-38
0.088770472 0.050267622 1.123 1.3966551e-38
0.095187619 0.050267622 1.123 1.4241703e-38
0.097326666 0.050267622 1.123 1.4333899e-38
0.099465713 0.050267622 1.123 1.451793e-38
0.10196667 0.050446671 1.1270001 1.4610835e-38
0.10411334 0.050446671 1.1270001 1.4887769e-38
0.10626 0.050446671 1.1270001 1.5073241e-38
0.10879143 0.050625715 1.131 1.507253e-38
0.11094572 0.050625715 1.131 1.5071832e-38
0.1134 0.050760005 1.1340001 1.4982169e-38
0.11556 0.050760005 1.1340001 1.4892846e-38
0.11813524 0.050939046 1.138 1.4525147e-38
0.12030286 0.050939046 1.138 1.4243575e-38
0.1255143 0.051297143 1.146 1.805372e-38
0.12769714 0.051297143 1.146 2.0365766e-38
0.13033333 0.051476192 1.1500001 2.2668852e-38
0.13252382 0.051476192 1.1500001 2.2479465e-38
0.13471429 0.051476192 1.1500001 2.2201789e-38
0.049414285 0.053806666 1.153 2.0544744e-38
0.051610474 0.053806666 1.153 1.8408782e-38
0.053806666 0.053806666 1.153 1.6178474e-38
0.056002859 0.053806666 1.153 1.3974427e-38
0.058047622 0.053666674 1.1500001 1.4066626e-38
0.060238097 0.053666674 1.1500001 1.424635e-38
0.064169526 0.053293336 1.1420001 1.3967255e-38
0.066112377 0.053106666 1.138 1.3960081e-38
0.068279997 0.053106666 1.138 1.3959718e-38
0.070200004 0.052920002 1.1340001 1.3959714e-38
0.072360002 0.052920002 1.1340001 1.3966533e-38
0.074322857 0.052780002 1.131 1.4144467e-38
0.076477148 0.052780002 1.131 1.4329577e-38
0.078631431 0.052780002 1.131 1.4331016e-38
0.080785714 0.052780002 1.131 1.4422502e-38
0.082940005 0.052780002 1.131 1.4330676e-38
0.084793337 0.052593336 1.1270001 1.4331028e-38
0.087248571 0.052780002 1.131 1.3964396e-38
0.089402854 0.052780002 1.131 1.3691049e-38
0.091557145 0.052780002 1.131 1.3876163e-38
0.093711428 0.052780002 1.131 1.4150587e-38
0.095865719 0.052780002 1.131 1.4241698e-38
0.098020002 0.052780002 1.131 1.4333537e-38
0.10017429 0.052780002 1.131 1.4425736e-38
0.10232858 0.052780002 1.131 1.451864e-38
0.10448286 0.052780002 1.131 1.4794857e-38
0.10663714 0.052780002 1.131 1.5073234e-38
0.10879143 0.052780002 1.131 1.4982117e-38
0.11124001 0.052920002 1.1340001 1.4889944e-38
0.1134 0.052920002 1.1340001 1.4889965e-38
0.11596762 0.053106666 1.138 1.4892829e-38
0.11813524 0.053106666 1.138 1.4616241e-38
0.12333143 0.053480003 1.146 1.6468825e-38
0.1255143 0.053480003 1.146 1.8607255e-38
0.12769714 0.053480003 1.146 2.0737077e-38
0.13033333 0.053666674 1.1500001 2.2847865e-38
0.13252382 0.053666674 1.1500001 2.2479093e-38
0.13471429 0.053666674 1.1500001 2.2201785e-38
0.049414285 0.056002859 1.153 2.0728429e-38
0.051610474 0.056002859 1.153 1.8588873e-38
0.053806666 0.056002859 1.153 1.6819529e-38
0.055857148 0.055857148 1.1500001 1.498246e-38
0.058047622 0.055857148 1.1500001 1.4884168e-38
0.060238097 0.055857148 1.1500001 1.4878069e-38
0.062428575 0.055857148 1.1500001 1.5620287e-38
0.066112377 0.055274285 1.138 1.7002124e-38
0.068279997 0.055274285 1.138 1.7558159e-38
0.070447616 0.055274285 1.138 1.6818453e-38
0.072360002 0.055080004 1.1340001 1.6078747e-38
0.074519999 0.055080004 1.1340001 1.6076594e-38
0.076680005 0.055080004 1.1340001 1.6074801e-38
0.078631431 0.054934289 1.131 1.5892923e-38
0.080785714 0.054934289 1.131 1.5797517e-38
0.082940005 0.054934289 1.131 1.4879539e-38
0.087248571 0.054934289 1.131 1.3965841e-38
0.089402854 0.054934289 1.131 1.4058397e-38
0.091557145 0.054934289 1.131 1.4058758e-38
0.093711428 0.054934289 1.131 1.4151301e-38
0.095865719 0.054934289 1.131 1.4241335e-38
0.098020002 0.054934289 1.131 1.4335687e-38
0.10017429 0.054934289 1.131 1.4425736e-38
0.1026 0.055080004 1.1340001 1.4610117e-38
0.10476001 0.055080004 1.1340001 1.5071083e-38
0.10692 0.055080004 1.1340001 1.5532764e-38
0.10908 0.055080004 1.1340001 1.5165417e-38
0.11124001 0.055080004 1.1340001 1.4798097e-38
0.1134 0.055080004 1.1340001 1.4615167e-38
0.11596762 0.055274285 1.138 1.4341799e-38
0.11813524 0.055274285 1.138 1.425031e-38
0.12030286 0.055274285 1.138 1.4158889e-38
0.12333143 0.055662859 1.146 1.6561017e-38
0.1255143 0.055662859 1.146 1.8977119e-38
0.12769714 0.055662859 1.146 2.073459e-38
0.13033333 0.055857148 1.1500001 2.2572364e-38
0.13252382 0.055857148 1.1500001 2.2386528e-38
0.13471429 0.055857148 1.1500001 2.2202139e-38
0.049414285 0.058199048 1.153 2.0912467e-38
0.051610474 0.058199048 1.153 1.8867253e-38
0.053666674 0.058047622 1.1500001 1.7460943e-38
0.055857148 0.058047622 1.1500001 1.6078046e-38
0.058047622 0.058047622 1.1500001 1.5797175e-38
0.060238097 0.058047622 1.1500001 1.5525242e-38
0.062428575 0.058047622 1.1500001 1.7181853e-38
0.068279997 0.057441905 1.138 2.1267905e-38
0.070447616 0.057441905 1.138 1.9789552e-38
0.072615236 0.057441905 1.138 1.8311916e-38
0.074519999 0.057240006 1.1340001 1.8028501e-38
0.076680005 0.057240006 1.1340001 1.7833335e-38
0.078840002 0.057240006 1.1340001 1.7454858e-38
0.081 0.057240006 1.1340001 1.7176483e-38
0.083160006 0.057240006 1.1340001 1.5336905e-38
0.085094288 0.057088573 1.131 1.3593105e-38
0.087248571 0.057088573 1.131 1.4053716e-38
0.089639999 0.057240006 1.1340001 1.4514334e-38
0.091557145 0.057088573 1.131 1.4332104e-38
0.093960002 0.057240006 1.1340001 1.4151294e-38
0.095865719 0.057088573 1.131 1.4241326e-38
0.098280005 0.057240006 1.1340001 1.433353e-38
0.10044 0.057240006 1.1340001 1.4517929e-38
0.1026 0.057240006 1.1340001 1.470339e-38
0.10476001 0.057240006 1.1340001 1.5347672e-38
0.10692 0.057240006 1.1340001 1.5991596e-38
0.10908 0.057240006 1.1340001 1.5346595e-38
0.11124001 0.057240006 1.1340001 1.4798103e-38
0.1138 0.057441905 1.138 1.4340371e-38
0.11596762 0.057441905 1.138 1.3882618e-38
0.11813524 0.057441905 1.138 1.3975875e-38
0.1255143 0.057845715 1.146 1.9348063e-38
0.12769714 0.057845715 1.146 2.0824276e-38
0.13033333 0.058047622 1.1500001 2.2293985e-38
0.13252382 0.058047622 1.1500001 2.220249e-38
0.049285717 0.060238097 1.1500001 2.1006104e-38
0.051476192 0.060238097 1.1500001 1.9054157e-38
0.053666674 0.060238097 1.1500001 1.7918326e-38
0.055857148 0.060238097 1.1500001 1.6929694e-38
0.058047622 0.060238097 1.1500001 1.7666924e-38
0.060238097 0.060238097 1.1500001 1.8404448e-38
0.062428575 0.060238097 1.1500001 1.9242059e-38
0.06439428 0.060028572 1.146 2.0171998e-38
0.06634476 0.05981905 1.1420001 2.044797e-38
0.068279997 0.059609525 1.138 2.0815996e-38
0.070447616 0.059609525 1.138 1.9709631e-38
0.072615236 0.059609525 1.138 1.8603626e-38
0.074782856 0.059609525 1.138 1.9153172e-38
0.076950483 0.059609525 1.138 1.9794554e-38
0.079118095 0.059609525 1.138 1.9973174e-38
0.081285715 0.059609525 1.138 2.0244003e-38
0.083160006 0.059400003 1.1340001 1.7928012e-38
0.085320003 0.059400003 1.1340001 1.570423e-38
0.087480001 0.059400003 1.1340001 1.4970622e-38
0.089639999 0.059400003 1.1340001 1.4238458e-38
0.091800004 0.059400003 1.1340001 1.4332455e-38
0.093960002 0.059400003 1.1340001 1.4426792e-38
0.09612 0.059400003 1.1340001 1.4426066e-38
0.098280005 0.059400003 1.1340001 1.4517556e-38
0.10044 0.059400003 1.1340001 1.4702317e-38
0.1026 0.059400003 1.1340001 1.4888859e-38
0.10476001 0.059400003 1.1340001 1.5256203e-38
0.10692 0.059400003 1.1340001 1.5623908e-38
0.10946476 0.059609525 1.138 1.5164377e-38
0.11163238 0.059609525 1.138 1.4798468e-38
0.1138 0.059609525 1.138 1.4525113e-38
0.11855049 0.05981905 1.1420001 1.4158826e-38
0.12376191 0.060238097 1.1500001 1.674976e-38
0.12595239 0.060238097 1.1500001 1.9535335e-38
0.12814288 0.060238097 1.1500001 2.0823922e-38
0.13067333 0.060395237 1.153 2.2203941e-38
0.13286953 0.060395237 1.153 2.2202483e-38
0.051476192 0.062428575 1.1500001 1.932753e-38
0.053666674 0.062428575 1.1500001 1.8467588e-38
0.055857148 0.062428575 1.1500001 1.7767739e-38
0.058047622 0.062428575 1.1500001 1.9528434e-38
0.060238097 0.062428575 1.1500001 2.1362247e-38
0.062428575 0.062428575 1.1500001 2.1359352e-38
0.06439428 0.062211428 1.146 2.1361561e-38
0.068279997 0.061777141 1.138 2.0446101e-38
0.070447616 0.061777141 1.138 1.967336e-38
0.074782856 0.061777141 1.138 2.0349216e-38
0.076950483 0.061777141 1.138 2.1726391e-38
0.079118095 0.061777141 1.138 2.2569774e-38
0.081285715 0.061777141 1.138 2.3383346e-38
0.083160006 0.061560001 1.1340001 2.0615333e-38
0.085320003 0.061560001 1.1340001 1.782329e-38
0.087480001 0.061560001 1.1340001 1.5887901e-38
0.089639999 0.061560001 1.1340001 1.395936e-38
0.091800004 0.061560001 1.1340001 1.4326706e-38
0.093960002 0.061560001 1.1340001 1.4695479e-38
0.09612 0.061560001 1.1340001 1.4697268e-38
0.098280005 0.061560001 1.1340001 1.4791263e-38
0.10044 0.061560001 1.1340001 1.4886693e-38
0.1026 0.061560001 1.1340001 1.5070009e-38
0.10512953 0.061777141 1.138 1.516149e-38
0.10729714 0.061777141 1.138 1.5255855e-38
0.10946476 0.061777141 1.138 1.4980368e-38
0.11163238 0.061777141 1.138 1.4799189e-38
0.1138 0.061777141 1.138 1.4709846e-38
0.11637525 0.061994288 1.1420001 1.4709482e-38
0.12157144 0.062428575 1.1500001 1.4068143e-38
0.12376191 0.062428575 1.1500001 1.6846606e-38
0.12595239 0.062428575 1.1500001 1.9720789e-38
0.12847714 0.062591426 1.153 2.0915387e-38
0.13067333 0.062591426 1.153 2.2203583e-38
0.13286953 0.062591426 1.153 2.2202852e-38
0.051476192 0.064619049 1.1500001 1.9325397e-38
0.053666674 0.064619049 1.1500001 1.818782e-38
0.056002859 0.064787619 1.153 1.7228609e-38
0.058047622 0.064619049 1.1500001 1.9436289e-38
0.060238097 0.064619049 1.1500001 2.1731435e-38
0.062428575 0.064619049 1.1500001 2.1827911e-38
0.06439428 0.06439428 1.146 2.1832583e-38
0.066577144 0.06439428 1.146 2.1551345e-38
0.068520002 0.064169526 1.1420001 2.1362263e-38
0.070695244 0.064169526 1.1420001 1.9883179e-38
0.072870485 0.064169526 1.1420001 1.8404162e-38
0.074782856 0.063944757 1.138 2.044754e-38
0.076950483 0.063944757 1.138 2.2556203e-38
0.079118095 0.063944757 1.138 2.293757e-38
0.081285715 0.063944757 1.138 2.3304859e-38
0.083160006 0.063720003 1.1340001 2.1538767e-38
0.085320003 0.063720003 1.1340001 1.975868e-38
0.087480001 0.063720003 1.1340001 1.8560816e-38
0.089639999 0.063720003 1.1340001 1.7363009e-38
0.091800004 0.063720003 1.1340001 1.6994232e-38
0.093960002 0.063720003 1.1340001 1.6717649e-38
0.09612 0.063720003 1.1340001 1.6442501e-38
0.098280005 0.063720003 1.1340001 1.6167355e-38
0.10044 0.063720003 1.1340001 1.5618496e-38
0.10296191 0.063944757 1.138 1.5069999e-38
0.10512953 0.063944757 1.138 1.5162201e-38
0.10729714 0.063944757 1.138 1.5255503e-38
0.10946476 0.063944757 1.138 1.5072942e-38
0.11163238 0.063944757 1.138 1.498394e-38
0.11420001 0.064169526 1.1420001 1.4800234e-38
0.11637525 0.064169526 1.1420001 1.4708396e-38
0.11896572 0.06439428 1.146 1.4709112e-38
0.12157144 0.064619049 1.1500001 1.4710624e-38
0.12408476 0.064787619 1.153 1.7678137e-38
0.12628095 0.064787619 1.153 2.0641286e-38
0.12847714 0.064787619 1.153 2.1560019e-38
0.13067333 0.064787619 1.153 2.247909e-38
0.051476192 0.066809535 1.1500001 1.9421536e-38
0.053666674 0.066809535 1.1500001 1.8000193e-38
0.056002859 0.066983812 1.153 1.6667537e-38
0.058047622 0.066809535 1.1500001 1.9436269e-38
0.060238097 0.066809535 1.1500001 2.2190968e-38
0.062428575 0.066809535 1.1500001 2.2292481e-38
0.06439428 0.066577144 1.146 2.2384332e-38
0.066577144 0.066577144 1.146 2.229538e-38
0.068520002 0.06634476 1.1420001 2.2282404e-38
0.070695244 0.06634476 1.1420001 2.0020536e-38
0.072870485 0.06634476 1.1420001 1.7860321e-38
0.074782856 0.066112377 1.138 2.0638058e-38
0.076950483 0.066112377 1.138 2.3394922e-38
0.079118095 0.066112377 1.138 2.3305243e-38
0.081285715 0.066112377 1.138 2.3301988e-38
0.083160006 0.065880001 1.1340001 2.2554002e-38
0.085320003 0.065880001 1.1340001 2.1807798e-38
0.087480001 0.065880001 1.1340001 2.1337101e-38
0.089639999 0.065880001 1.1340001 2.087862e-38
0.091800004 0.065880001 1.1340001 1.977765e-38
0.093960002 0.065880001 1.1340001 1.8750951e-38
0.09612 0.065880001 1.1340001 1.8091953e-38
0.098280005 0.065880001 1.1340001 1.754094e-38
0.10044 0.065880001 1.1340001 1.6347439e-38
0.10296191 0.066112377 1.138 1.5160397e-38
0.10512953 0.066112377 1.138 1.5254749e-38
0.10729714 0.066112377 1.138 1.5347685e-38
0.10946476 0.066112377 1.138 1.5257308e-38
0.11163238 0.066112377 1.138 1.516761e-38
0.11420001 0.06634476 1.1420001 1.4892448e-38
0.11678286 0.066577144 1.146 1.4708764e-38
0.11896572 0.066577144 1.146 1.4984258e-38
0.12157144 0.066809535 1.1500001 1.5357776e-38
0.12408476 0.066983812 1.153 1.84182e-38
0.12671906 0.067216195 1.1570001 2.1561077e-38
0.12892286 0.067216195 1.1570001 2.2114267e-38
0.051476192 0.069000006 1.1500001 1.9885377e-38
