# .PCD v0.7 - Point Cloud Data file format
VERSION 0.7
FIELDS x y z rgb
SIZE 4 4 4 4
TYPE F F F F
COUNT 1 1 1 1
WIDTH 1009
HEIGHT 1
VIEWPOINT 0 0 0 1 0 0 0
POINTS 1009
DATA ascii
0.4372972 -0.32245147 1.5460001 2.3403189e-38
0.44024193 -0.32245147 1.5460001 2.3403556e-38
0.4431867 -0.32245147 1.5460001 2.3403925e-38
0.44613147 -0.32245147 1.5460001 2.3403195e-38
0.44907621 -0.32245147 1.5460001 2.3402825e-38
0.45202097 -0.32245147 1.5460001 2.3402831e-38
-0.76038003 -0.27094004 1.3110001 2.3410685e-38
-0.75788289 -0.27094004 1.3110001 2.1014642e-38
-0.75538582 -0.27094004 1.3110001 1.8710814e-38
-0.75288862 -0.27094004 1.3110001 1.5930231e-38
-0.74180573 -0.26784 1.296 1.3149697e-38
-0.74218959 -0.26887333 1.3010001 1.305535e-38
-0.73686856 -0.26784 1.296 1.2961424e-38
-0.73439997 -0.26784 1.296 1.6031517e-38
-0.74393141 -0.28272 1.368 8.6504845e-39
-0.74457717 -0.28396001 1.3740001 8.4657527e-39
-0.73872 -0.28272 1.368 8.3732151e-39
-0.73934293 -0.28396001 1.3740001 8.3746361e-39
-0.73672569 -0.28396001 1.3740001 9.0192656e-39
-0.73677999 -0.28499335 1.3790001 9.6624826e-39
-0.73734772 -0.28623334 1.3850001 9.4788214e-39
-0.73736191 -0.2872667 1.3900001 9.295156e-39
-0.73471433 -0.2872667 1.3900001 9.1100571e-39
-0.73206669 -0.2872667 1.3900001 9.0185832e-39
-0.73256767 -0.28850666 1.396 9.0196636e-39
-0.72990853 -0.28850666 1.396 9.112557e-39
-0.73037529 -0.28974667 1.4020001 9.2958525e-39
-0.73030007 -0.29078001 1.4070001 9.5713926e-39
-0.7307229 -0.29202002 1.4130001 9.8483676e-39
-0.73765999 -0.29697999 1.437 9.571401e-39
-0.73492283 -0.29697999 1.437 9.1114991e-39
-0.7352429 -0.29822001 1.4430001 9.2958805e-39
-0.74163151 -0.30194002 1.4610001 9.5721143e-39
-0.73884857 -0.30194002 1.4610001 9.6650372e-39
-0.73606575 -0.30194002 1.4610001 9.849776e-39
-0.73629433 -0.30318001 1.4670001 9.5746198e-39
-0.26770765 -0.32095334 1.5530001 2.3403199e-38
-0.22925238 -0.32095334 1.5530001 2.3404638e-38
-0.22629429 -0.32095334 1.5530001 2.340428e-38
-0.2233362 -0.32095334 1.5530001 2.340428e-38
-0.22037812 -0.32095334 1.5530001 2.340463e-38
-0.21742001 -0.32095334 1.5530001 2.3404982e-38
-0.21446191 -0.32095334 1.5530001 2.3404989e-38
-0.21150382 -0.32095334 1.5530001 2.3404638e-38
-0.20854571 -0.32095334 1.5530001 2.340428e-38
-0.20558764 -0.32095334 1.5530001 2.340428e-38
-0.20262954 -0.32095334 1.5530001 2.340464e-38
-0.19967143 -0.32095334 1.5530001 2.3404642e-38
-0.19671334 -0.32095334 1.5530001 2.3404998e-38
-0.19375524 -0.32095334 1.5530001 2.3405356e-38
-0.19079715 -0.32095334 1.5530001 2.3405357e-38
-0.18192287 -0.32095334 1.5530001 2.3405359e-38
-0.17896476 -0.32095334 1.5530001 2.3405361e-38
-0.17600667 -0.32095334 1.5530001 2.3405005e-38
-0.17304857 -0.32095334 1.5530001 2.3405007e-38
-0.14642572 -0.32095334 1.5530001 2.3405717e-38
-0.14346762 -0.32095334 1.5530001 2.3405353e-38
-0.14050953 -0.32095334 1.5530001 2.3405706e-38
-0.13755144 -0.32095334 1.5530001 2.3406786e-38
-0.13459334 -0.32095334 1.5530001 2.3406791e-38
-0.13163525 -0.32095334 1.5530001 2.3407151e-38
-0.12867714 -0.32095334 1.5530001 2.3406077e-38
-0.12571906 -0.32095334 1.5530001 2.3406091e-38
-0.12276095 -0.32095334 1.5530001 2.3406107e-38
-0.11980286 -0.32095334 1.5530001 2.3406091e-38
-0.11631811 -0.31950668 1.5460001 2.3406435e-38
-0.11337334 -0.31950668 1.5460001 2.3407518e-38
-0.11042858 -0.31950668 1.5460001 2.340609e-38
-0.10748382 -0.31950668 1.5460001 2.3405364e-38
-0.10453905 -0.31950668 1.5460001 2.3405716e-38
-0.10159429 -0.31950668 1.5460001 2.3406439e-38
-0.098649532 -0.31950668 1.5460001 2.3406087e-38
-0.095704764 -0.31950668 1.5460001 2.340608e-38
-0.092760012 -0.31950668 1.5460001 2.3405716e-38
-0.089815244 -0.31950668 1.5460001 2.3406433e-38
-0.086870477 -0.31950668 1.5460001 2.3406435e-38
-0.083925724 -0.31950668 1.5460001 2.3406792e-38
-0.080980957 -0.31950668 1.5460001 2.3406791e-38
-0.078036197 -0.31950668 1.5460001 2.3406789e-38
-0.075091437 -0.31950668 1.5460001 2.3405713e-38
-0.072146669 -0.31950668 1.5460001 2.3404987e-38
-0.069201909 -0.31950668 1.5460001 2.3407491e-38
-0.066257149 -0.31950668 1.5460001 2.3407856e-38
-0.063312382 -0.31950668 1.5460001 2.3406785e-38
-0.060640957 -0.32095334 1.5530001 2.3407134e-38
-0.057422861 -0.31950668 1.5460001 2.3406765e-38
-0.054724764 -0.32095334 1.5530001 2.3406778e-38
-0.051766668 -0.32095334 1.5530001 2.3407149e-38
-0.048808575 -0.32095334 1.5530001 2.3407872e-38
-0.045850478 -0.32095334 1.5530001 2.3406803e-38
-0.042892382 -0.32095334 1.5530001 2.3407177e-38
-0.039934289 -0.32095334 1.5530001 2.3407193e-38
-0.036976192 -0.32095334 1.5530001 2.3407533e-38
-0.034018096 -0.32095334 1.5530001 2.3407156e-38
-0.028101906 -0.32095334 1.5530001 2.3406795e-38
-0.02514381 -0.32095334 1.5530001 2.3406793e-38
-0.022185717 -0.32095334 1.5530001 2.3406433e-38
-0.01922762 -0.32095334 1.5530001 2.3406445e-38
-0.016269524 -0.32095334 1.5530001 2.3407175e-38
-0.01331143 -0.32095334 1.5530001 2.3407162e-38
-0.010353333 -0.32095334 1.5530001 2.3407151e-38
-0.0073952381 -0.32095334 1.5530001 2.3407148e-38
-0.004437143 -0.32095334 1.5530001 2.3406786e-38
-0.0014723811 -0.31950668 1.5460001 2.3406779e-38
0.0014790477 -0.32095334 1.5530001 2.3407131e-38
0.0044171433 -0.31950668 1.5460001 2.3407858e-38
0.0073619052 -0.31950668 1.5460001 2.340787e-38
0.010306667 -0.31950668 1.5460001 2.3408231e-38
0.013251429 -0.31950668 1.5460001 2.3407518e-38
0.016196191 -0.31950668 1.5460001 2.340536e-38
0.019140953 -0.31950668 1.5460001 2.3407865e-38
0.022085717 -0.31950668 1.5460001 2.3408566e-38
0.025030477 -0.31950668 1.5460001 2.3408549e-38
0.027975241 -0.31950668 1.5460001 2.340857e-38
0.030920003 -0.31950668 1.5460001 2.3408233e-38
0.033864763 -0.31950668 1.5460001 2.3408593e-38
0.036809526 -0.31950668 1.5460001 2.3408235e-38
0.03975429 -0.31950668 1.5460001 2.3408231e-38
0.04269905 -0.31950668 1.5460001 2.3408228e-38
0.04564381 -0.31950668 1.5460001 2.3408238e-38
0.048808575 -0.32095334 1.5530001 2.3407891e-38
0.07247334 -0.32095334 1.5530001 2.3407889e-38
0.078389525 -0.32095334 1.5530001 2.3407889e-38
0.081347629 -0.32095334 1.5530001 2.3408235e-38
0.084305719 -0.32095334 1.5530001 2.3407865e-38
0.22232954 -0.31950668 1.5460001 2.3406796e-38
0.24588762 -0.31950668 1.5460001 2.340751e-38
0.24883239 -0.31950668 1.5460001 2.3407155e-38
0.25177717 -0.31950668 1.5460001 2.3407872e-38
0.25472191 -0.31950668 1.5460001 2.3406798e-38
0.25766668 -0.31950668 1.5460001 2.3406438e-38
0.26061144 -0.31950668 1.5460001 2.3406438e-38
0.26944575 -0.31950668 1.5460001 2.3406808e-38
0.39901528 -0.31950668 1.5460001 2.3403212e-38
0.40196005 -0.31950668 1.5460001 2.340358e-38
0.40490478 -0.31950668 1.5460001 2.340391e-38
0.40784955 -0.31950668 1.5460001 2.3403523e-38
0.41079432 -0.31950668 1.5460001 2.340318e-38
0.41373906 -0.31950668 1.5460001 2.3404273e-38
0.41668385 -0.31950668 1.5460001 2.3403537e-38
0.41962862 -0.31950668 1.5460001 2.3403161e-38
0.4343524 -0.31950668 1.5460001 2.3403541e-38
0.4372972 -0.31950668 1.5460001 2.3403554e-38
0.4431867 -0.31950668 1.5460001 2.3403583e-38
-0.76038003 -0.26844287 1.3110001 2.3403549e-38
-0.75788289 -0.26844287 1.3110001 2.3412135e-38
-0.75538582 -0.26844287 1.3110001 2.3408524e-38
-0.75001723 -0.26741907 1.3060001 2.2853899e-38
-0.74180573 -0.26537144 1.296 2.2381082e-38
-0.74218959 -0.26639527 1.3010001 1.8969887e-38
-0.73686856 -0.26537144 1.296 1.5566236e-38
-0.73156667 -0.26434761 1.291 1.629518e-38
-0.74393141 -0.28011426 1.368 8.8348841e-39
-0.74132574 -0.28011426 1.368 8.6501426e-39
-0.73872 -0.28011426 1.368 8.2813712e-39
-0.73934293 -0.28134286 1.3740001 7.9161746e-39
-0.73672569 -0.28134286 1.3740001 8.4689757e-39
-0.73677999 -0.28236669 1.3790001 9.111834e-39
-0.73734772 -0.28359526 1.3850001 9.2036807e-39
-0.73736191 -0.28461909 1.3900001 9.2955162e-39
-0.73471433 -0.28461909 1.3900001 9.2022457e-39
-0.73206669 -0.28461909 1.3900001 9.1107718e-39
-0.73256767 -0.28584763 1.396 9.0196566e-39
-0.72990853 -0.28584763 1.396 8.9281714e-39
-0.73037529 -0.28707621 1.4020001 9.2036695e-39
-0.73030007 -0.2881 1.4070001 9.4802718e-39
-0.73730576 -0.29301432 1.4310001 9.8479823e-39
-0.73765999 -0.29424286 1.437 9.3877174e-39
-0.73492283 -0.29424286 1.437 8.9288902e-39
-0.7352429 -0.29547146 1.4430001 9.2051072e-39
-0.74163151 -0.29915717 1.4610001 9.5724576e-39
-0.73884857 -0.29915717 1.4610001 9.756137e-39
-0.73908865 -0.30038574 1.4670001 1.0032348e-38
-0.68697625 -0.31226194 1.5250001 1.2231385e-38
-0.68407142 -0.31226194 1.5250001 1.1296126e-38
-0.22925238 -0.31799525 1.5530001 2.3404638e-38
-0.22629429 -0.31799525 1.5530001 2.3404638e-38
-0.2233362 -0.31799525 1.5530001 2.3404996e-38
-0.22037812 -0.31799525 1.5530001 2.3404991e-38
-0.21742001 -0.31799525 1.5530001 2.3404987e-38
-0.21446191 -0.31799525 1.5530001 2.3404991e-38
-0.21150382 -0.31799525 1.5530001 2.3404278e-38
-0.20854571 -0.31799525 1.5530001 2.3404274e-38
-0.20262954 -0.31799525 1.5530001 2.3404991e-38
-0.19967143 -0.31799525 1.5530001 2.3405356e-38
-0.19671334 -0.31799525 1.5530001 2.3404998e-38
-0.19375524 -0.31799525 1.5530001 2.3405359e-38
-0.19079715 -0.31799525 1.5530001 2.3405366e-38
-0.18783906 -0.31799525 1.5530001 2.3405733e-38
-0.18192287 -0.31799525 1.5530001 2.3405723e-38
-0.17896476 -0.31799525 1.5530001 2.340537e-38
-0.17600667 -0.31799525 1.5530001 2.3405374e-38
-0.17304857 -0.31799525 1.5530001 2.3405011e-38
-0.14346762 -0.31799525 1.5530001 2.340572e-38
-0.11980286 -0.31799525 1.5530001 2.3406442e-38
-0.11684477 -0.31799525 1.5530001 2.3406432e-38
-0.11337334 -0.31656191 1.5460001 2.3406438e-38
-0.11042858 -0.31656191 1.5460001 2.3406443e-38
-0.10748382 -0.31656191 1.5460001 2.3405721e-38
-0.10453905 -0.31656191 1.5460001 2.3406075e-38
-0.10159429 -0.31656191 1.5460001 2.3406077e-38
-0.098649532 -0.31656191 1.5460001 2.3406796e-38
-0.095704764 -0.31656191 1.5460001 2.3405714e-38
-0.092760012 -0.31656191 1.5460001 2.3405709e-38
-0.089815244 -0.31656191 1.5460001 2.3406431e-38
-0.086870477 -0.31656191 1.5460001 2.3406795e-38
-0.083925724 -0.31656191 1.5460001 2.3406802e-38
-0.080980957 -0.31656191 1.5460001 2.3406809e-38
-0.078036197 -0.31656191 1.5460001 2.3407159e-38
-0.066257149 -0.31656191 1.5460001 2.3407147e-38
-0.063312382 -0.31656191 1.5460001 2.3407148e-38
-0.060640957 -0.31799525 1.5530001 2.3407142e-38
-0.057682861 -0.31799525 1.5530001 2.3406778e-38
-0.054724764 -0.31799525 1.5530001 2.3406784e-38
-0.051766668 -0.31799525 1.5530001 2.3407149e-38
-0.048808575 -0.31799525 1.5530001 2.3406795e-38
-0.045850478 -0.31799525 1.5530001 2.3406798e-38
-0.042892382 -0.31799525 1.5530001 2.3407166e-38
-0.022185717 -0.31799525 1.5530001 2.3406433e-38
-0.01922762 -0.31799525 1.5530001 2.3406798e-38
-0.016269524 -0.31799525 1.5530001 2.3407162e-38
-0.01331143 -0.31799525 1.5530001 2.3407874e-38
-0.010353333 -0.31799525 1.5530001 2.3411095e-38
-0.0073952381 -0.31799525 1.5530001 2.3406789e-38
-0.004437143 -0.31799525 1.5530001 2.3406429e-38
-0.0014723811 -0.31656191 1.5460001 2.3406785e-38
0.0014723811 -0.31656191 1.5460001 2.3407141e-38
0.0044171433 -0.31656191 1.5460001 2.3407504e-38
0.0073619052 -0.31656191 1.5460001 2.3407151e-38
0.010306667 -0.31656191 1.5460001 2.340787e-38
0.013251429 -0.31656191 1.5460001 2.3407512e-38
0.016196191 -0.31656191 1.5460001 2.3408226e-38
0.019140953 -0.31656191 1.5460001 2.3408939e-38
0.022085717 -0.31656191 1.5460001 2.340857e-38
0.025030477 -0.31656191 1.5460001 2.3408202e-38
0.027975241 -0.31656191 1.5460001 2.3408217e-38
0.030920003 -0.31656191 1.5460001 2.3408234e-38
0.033864763 -0.31656191 1.5460001 2.3408242e-38
0.036809526 -0.31656191 1.5460001 2.3406817e-38
0.03975429 -0.31656191 1.5460001 2.3408241e-38
0.04269905 -0.31656191 1.5460001 2.340823e-38
0.045850478 -0.31799525 1.5530001 2.3408228e-38
0.048808575 -0.31799525 1.5530001 2.3407151e-38
0.051766668 -0.31799525 1.5530001 2.340787e-38
0.069515243 -0.31799525 1.5530001 2.3407891e-38
0.07247334 -0.31799525 1.5530001 2.3407887e-38
0.075431429 -0.31799525 1.5530001 2.3407884e-38
0.078389525 -0.31799525 1.5530001 2.3407882e-38
0.081347629 -0.31799525 1.5530001 2.3408233e-38
0.084305719 -0.31799525 1.5530001 2.3408224e-38
0.22037812 -0.31799525 1.5530001 2.3407515e-38
0.2233362 -0.31799525 1.5530001 2.3407155e-38
0.22629429 -0.31799525 1.5530001 2.3407155e-38
0.22925238 -0.31799525 1.5530001 2.3406793e-38
0.23221049 -0.31799525 1.5530001 2.3406792e-38
0.23516859 -0.31799525 1.5530001 2.3407152e-38
0.23812668 -0.31799525 1.5530001 2.3407871e-38
0.24108477 -0.31799525 1.5530001 2.340787e-38
0.24404287 -0.31799525 1.5530001 2.3407867e-38
0.24588762 -0.31656191 1.5460001 2.3407511e-38
0.24883239 -0.31656191 1.5460001 2.3407155e-38
0.25177717 -0.31656191 1.5460001 2.3406799e-38
0.25472191 -0.31656191 1.5460001 2.3406802e-38
0.25766668 -0.31656191 1.5460001 2.340644e-38
0.26179144 -0.31799525 1.5530001 2.3406438e-38
0.26474956 -0.31799525 1.5530001 2.3406796e-38
0.26770765 -0.31799525 1.5530001 2.3406796e-38
0.27066571 -0.31799525 1.5530001 2.3406796e-38
0.39901528 -0.31656191 1.5460001 2.3403205e-38
0.40196005 -0.31656191 1.5460001 2.3402134e-38
0.40490478 -0.31656191 1.5460001 2.3404627e-38
0.40784955 -0.31656191 1.5460001 2.3403893e-38
0.41079432 -0.31656191 1.5460001 2.3403905e-38
0.41373906 -0.31656191 1.5460001 2.3404277e-38
0.41668385 -0.31656191 1.5460001 2.3403903e-38
0.41962862 -0.31656191 1.5460001 2.3402812e-38
-0.76038003 -0.26594573 1.3110001 1.5204402e-38
-0.75788289 -0.26594573 1.3110001 1.7055124e-38
-0.75250483 -0.26493144 1.3060001 1.8813987e-38
-0.75001723 -0.26493144 1.3060001 2.0286225e-38
-0.74180573 -0.26290286 1.296 2.1850642e-38
-0.74218959 -0.26391718 1.3010001 2.0369779e-38
-0.73686856 -0.26290286 1.296 1.8981066e-38
-0.73439997 -0.26290286 1.296 1.7967586e-38
-0.73193145 -0.26290286 1.296 1.6954174e-38
-0.74393141 -0.27750856 1.368 9.1111193e-39
-0.74132574 -0.27750856 1.368 9.0192796e-39
-0.73872 -0.27750856 1.368 8.7434102e-39
-0.73934293 -0.27872571 1.3740001 8.5597392e-39
-0.73672569 -0.27872571 1.3740001 8.9285175e-39
-0.73677999 -0.27974001 1.3790001 9.2965882e-39
-0.73734772 -0.28095716 1.3850001 9.296242e-39
-0.73736191 -0.28197142 1.3900001 9.296235e-39
-0.73471433 -0.28197142 1.3900001 9.2955106e-39
-0.73206669 -0.28197142 1.3900001 9.3869901e-39
-0.73256767 -0.28318855 1.396 9.0192922e-39
-0.72990853 -0.28318855 1.396 8.6530264e-39
-0.73037529 -0.28440571 1.4020001 9.0210859e-39
-0.73030007 -0.28542 1.4070001 9.3891523e-39
-0.73730576 -0.29028857 1.4310001 9.9405226e-39
-0.73765999 -0.29150569 1.437 9.4813353e-39
-0.73492283 -0.29150569 1.437 9.1143423e-39
-0.7352429 -0.29272285 1.4430001 9.2965699e-39
-0.74163151 -0.29637429 1.4610001 9.4798892e-39
-0.73884857 -0.29637429 1.4610001 9.5720904e-39
-0.73908865 -0.29759145 1.4670001 9.6628329e-39
-0.73930568 -0.2988086 1.473 9.6653286e-39
-0.73650002 -0.2988086 1.473 9.7560963e-39
-0.73369431 -0.2988086 1.473 1.049079e-38
-0.68697625 -0.30935714 1.5250001 1.3714348e-38
-0.68407142 -0.30935714 1.5250001 1.1479797e-38
-0.22925238 -0.31503716 1.5530001 2.340464e-38
-0.22629429 -0.31503716 1.5530001 2.3404997e-38
-0.2233362 -0.31503716 1.5530001 2.3404996e-38
-0.22037812 -0.31503716 1.5530001 2.3405353e-38
-0.21742001 -0.31503716 1.5530001 2.3404994e-38
-0.21446191 -0.31503716 1.5530001 2.3405353e-38
-0.21150382 -0.31503716 1.5530001 2.3404996e-38
-0.20854571 -0.31503716 1.5530001 2.3404986e-38
-0.11980286 -0.31503716 1.5530001 2.3406433e-38
-0.11684477 -0.31503716 1.5530001 2.3406431e-38
-0.11337334 -0.31361717 1.5460001 2.3406435e-38
-0.11042858 -0.31361717 1.5460001 2.340608e-38
-0.10797048 -0.31503716 1.5530001 2.3405719e-38
-0.10453905 -0.31361717 1.5460001 2.3405717e-38
-0.10159429 -0.31361717 1.5460001 2.3405714e-38
-0.098649532 -0.31361717 1.5460001 2.3405354e-38
-0.095704764 -0.31361717 1.5460001 2.3405349e-38
-0.092760012 -0.31361717 1.5460001 2.3405702e-38
-0.089815244 -0.31361717 1.5460001 2.3406429e-38
-0.086870477 -0.31361717 1.5460001 2.3406439e-38
-0.083925724 -0.31361717 1.5460001 2.3406453e-38
-0.080980957 -0.31361717 1.5460001 2.3406827e-38
-0.078036197 -0.31361717 1.5460001 2.3407888e-38
-0.075091437 -0.31361717 1.5460001 2.3406798e-38
-0.072146669 -0.31361717 1.5460001 2.340608e-38
-0.069201909 -0.31361717 1.5460001 2.3405723e-38
-0.066257149 -0.31361717 1.5460001 2.340572e-38
-0.063312382 -0.31361717 1.5460001 2.3406795e-38
-0.060640957 -0.31503716 1.5530001 2.3407151e-38
-0.057682861 -0.31503716 1.5530001 2.3407149e-38
-0.054724764 -0.31503716 1.5530001 2.3407867e-38
-0.051766668 -0.31503716 1.5530001 2.3407151e-38
-0.048808575 -0.31503716 1.5530001 2.3406433e-38
-0.045850478 -0.31503716 1.5530001 2.3407152e-38
-0.01922762 -0.31503716 1.5530001 2.3408586e-38
-0.016269524 -0.31503716 1.5530001 2.3408586e-38
-0.01331143 -0.31503716 1.5530001 2.3408584e-38
-0.010353333 -0.31503716 1.5530001 2.3407508e-38
-0.0073952381 -0.31503716 1.5530001 2.3406431e-38
-0.004437143 -0.31503716 1.5530001 2.3406789e-38
-0.0014790477 -0.31503716 1.5530001 2.3407149e-38
0.0014790477 -0.31503716 1.5530001 2.340751e-38
0.0044171433 -0.31361717 1.5460001 2.3407868e-38
0.0073619052 -0.31361717 1.5460001 2.3408227e-38
0.010306667 -0.31361717 1.5460001 2.3408584e-38
0.013251429 -0.31361717 1.5460001 2.3407507e-38
0.016196191 -0.31361717 1.5460001 2.3407863e-38
0.019140953 -0.31361717 1.5460001 2.3408219e-38
0.022085717 -0.31361717 1.5460001 2.3408933e-38
0.025030477 -0.31361717 1.5460001 2.3408214e-38
0.027975241 -0.31361717 1.5460001 2.3408224e-38
0.030920003 -0.31361717 1.5460001 2.3408235e-38
0.033864763 -0.31361717 1.5460001 2.3407894e-38
0.036809526 -0.31361717 1.5460001 2.340791e-38
0.039934289 -0.31503716 1.5530001 2.3408251e-38
0.04269905 -0.31361717 1.5460001 2.3408233e-38
0.045850478 -0.31503716 1.5530001 2.3408219e-38
0.051766668 -0.31503716 1.5530001 2.3408217e-38
0.075431429 -0.31503716 1.5530001 2.3407521e-38
0.078389525 -0.31503716 1.5530001 2.3408235e-38
0.081347629 -0.31503716 1.5530001 2.3408589e-38
0.084305719 -0.31503716 1.5530001 2.3408226e-38
0.087263815 -0.31503716 1.5530001 2.3407865e-38
0.22037812 -0.31503716 1.5530001 2.3407155e-38
0.2233362 -0.31503716 1.5530001 2.3407874e-38
0.22629429 -0.31503716 1.5530001 2.34068e-38
0.22925238 -0.31503716 1.5530001 2.3407156e-38
0.23221049 -0.31503716 1.5530001 2.3407155e-38
0.23516859 -0.31503716 1.5530001 2.3407522e-38
0.23812668 -0.31503716 1.5530001 2.3407532e-38
0.24108477 -0.31503716 1.5530001 2.3406803e-38
0.24404287 -0.31503716 1.5530001 2.3407152e-38
0.24588762 -0.31361717 1.5460001 2.3407512e-38
0.24883239 -0.31361717 1.5460001 2.3406796e-38
0.25177717 -0.31361717 1.5460001 2.3406443e-38
0.25472191 -0.31361717 1.5460001 2.3406449e-38
0.25883335 -0.31503716 1.5530001 2.3406802e-38
0.26179144 -0.31503716 1.5530001 2.3406796e-38
0.26474956 -0.31503716 1.5530001 2.3406786e-38
0.30320477 -0.31503716 1.5530001 2.3406754e-38
0.30616286 -0.31503716 1.5530001 2.3406772e-38
0.30912098 -0.31503716 1.5530001 2.3406432e-38
0.31207907 -0.31503716 1.5530001 2.340607e-38
0.31503716 -0.31503716 1.5530001 2.3406069e-38
0.40490478 -0.31361717 1.5460001 2.3405345e-38
0.40784955 -0.31361717 1.5460001 2.3405339e-38
0.41079432 -0.31361717 1.5460001 2.3405347e-38
0.41373906 -0.31361717 1.5460001 2.3404281e-38
0.41668385 -0.31361717 1.5460001 2.340427e-38
0.41962862 -0.31361717 1.5460001 2.3404259e-38
-0.76038003 -0.2634486 1.3110001 7.0865373e-39
-0.75788289 -0.2634486 1.3110001 1.0680316e-38
-0.75250483 -0.26244381 1.3060001 1.4279526e-38
-0.74714577 -0.26143906 1.3010001 1.77869e-38
-0.74180573 -0.26043427 1.296 2.1283822e-38
-0.74218959 -0.26143906 1.3010001 2.1842368e-38
-0.73686856 -0.26043427 1.296 2.2463644e-38
-0.7372334 -0.26143906 1.3010001 1.9623152e-38
-0.73475528 -0.26143906 1.3010001 1.685875e-38
-0.74382287 -0.26646286 1.3260001 1.2433744e-38
-0.7440924 -0.26746765 1.3310001 1.1048646e-38
-0.74155718 -0.26746765 1.3310001 9.762227e-39
-0.7390219 -0.26746765 1.3310001 9.67003e-39
-0.73861617 -0.27389809 1.363 9.3869747e-39
-0.73872 -0.27490285 1.368 9.2962098e-39
-0.73934293 -0.27610856 1.3740001 9.2962154e-39
-0.73672569 -0.27610856 1.3740001 9.3880565e-39
-0.73410857 -0.27610856 1.3740001 9.479899e-39
-0.73734772 -0.27831906 1.3850001 9.3880691e-39
-0.73736191 -0.27932382 1.3900001 9.296228e-39
-0.73471433 -0.27932382 1.3900001 9.4798934e-39
-0.73522669 -0.28052953 1.396 9.6624882e-39
-0.73256767 -0.28052953 1.396 9.0192796e-39
-0.73304576 -0.28173524 1.4020001 8.3767955e-39
-0.73037529 -0.28173524 1.4020001 8.8384883e-39
-0.73030007 -0.28274 1.4070001 9.3887852e-39
-0.73730576 -0.28756288 1.4310001 1.0033067e-38
-0.73765999 -0.28876856 1.437 9.6657224e-39
-0.73492283 -0.28876856 1.437 9.3891383e-39
-0.7352429 -0.2899743 1.4430001 9.3884195e-39
-0.74163151 -0.29359144 1.4610001 9.4802592e-39
-0.73884857 -0.29359144 1.4610001 9.3884293e-39
-0.73606575 -0.29359144 1.4610001 9.3887782e-39
-0.73629433 -0.29479715 1.4670001 9.6649923e-39
-0.73650002 -0.29600286 1.473 9.93978e-39
-0.73369431 -0.29600286 1.473 1.0120937e-38
-0.6842733 -0.30524665 1.5190001 1.5187341e-38
-0.68407142 -0.30645239 1.5250001 1.1755304e-38
-0.68116671 -0.30645239 1.5250001 8.3779095e-39
-0.32537144 -0.31348571 1.5600001 2.3402828e-38
-0.3224 -0.31348571 1.5600001 2.3403192e-38
-0.31348571 -0.31348571 1.5600001 2.3403912e-38
-0.3105143 -0.31348571 1.5600001 2.3403203e-38
-0.30754286 -0.31348571 1.5600001 2.3402853e-38
-0.21446191 -0.31207907 1.5530001 2.3405356e-38
-0.21150382 -0.31207907 1.5530001 2.3406072e-38
-0.11684477 -0.31207907 1.5530001 2.3406075e-38
-0.11092857 -0.31207907 1.5530001 2.3405723e-38
-0.10797048 -0.31207907 1.5530001 2.340608e-38
-0.10501239 -0.31207907 1.5530001 2.340285e-38
-0.10205429 -0.31207907 1.5530001 2.3406435e-38
-0.099096194 -0.31207907 1.5530001 2.3406073e-38
-0.096138105 -0.31207907 1.5530001 2.340607e-38
-0.092760012 -0.3106724 1.5460001 2.3406068e-38
-0.090221912 -0.31207907 1.5530001 2.3406073e-38
-0.086870477 -0.3106724 1.5460001 2.3406439e-38
-0.083925724 -0.3106724 1.5460001 2.3406086e-38
-0.080980957 -0.3106724 1.5460001 2.3407168e-38
-0.078036197 -0.3106724 1.5460001 2.3406803e-38
-0.075091437 -0.3106724 1.5460001 2.340608e-38
-0.07247334 -0.31207907 1.5530001 2.340608e-38
-0.069201909 -0.3106724 1.5460001 2.3405364e-38
-0.066257149 -0.3106724 1.5460001 2.3406083e-38
-0.063312382 -0.3106724 1.5460001 2.3406803e-38
-0.060640957 -0.31207907 1.5530001 2.3407165e-38
-0.057682861 -0.31207907 1.5530001 2.3407526e-38
-0.054724764 -0.31207907 1.5530001 2.3407519e-38
-0.051766668 -0.31207907 1.5530001 2.3407512e-38
-0.048808575 -0.31207907 1.5530001 2.3407514e-38
-0.045850478 -0.31207907 1.5530001 2.3407874e-38
-0.01922762 -0.31207907 1.5530001 2.3408228e-38
-0.016269524 -0.31207907 1.5530001 2.3408227e-38
-0.004437143 -0.31207907 1.5530001 2.3407152e-38
-0.0014790477 -0.31207907 1.5530001 2.3407515e-38
0.0014790477 -0.31207907 1.5530001 2.3407878e-38
0.004437143 -0.31207907 1.5530001 2.3407874e-38
0.0073619052 -0.3106724 1.5460001 2.3409662e-38
0.010306667 -0.3106724 1.5460001 2.3408228e-38
0.013251429 -0.3106724 1.5460001 2.3407872e-38
0.016196191 -0.3106724 1.5460001 2.3407867e-38
0.01922762 -0.31207907 1.5530001 2.3407863e-38
0.022185717 -0.31207907 1.5530001 2.3407861e-38
0.02514381 -0.31207907 1.5530001 2.3408219e-38
0.027975241 -0.3106724 1.5460001 2.3408224e-38
0.030920003 -0.3106724 1.5460001 2.340823e-38
0.033864763 -0.3106724 1.5460001 2.3408242e-38
0.036976192 -0.31207907 1.5530001 2.3408615e-38
0.039934289 -0.31207907 1.5530001 2.3408245e-38
0.042892382 -0.31207907 1.5530001 2.3408235e-38
0.045850478 -0.31207907 1.5530001 2.3408233e-38
0.081347629 -0.31207907 1.5530001 2.3408228e-38
0.2233362 -0.31207907 1.5530001 2.3406803e-38
0.22629429 -0.31207907 1.5530001 2.3406803e-38
0.22925238 -0.31207907 1.5530001 2.3407156e-38
0.23221049 -0.31207907 1.5530001 2.3408227e-38
0.23516859 -0.31207907 1.5530001 2.3407518e-38
0.23812668 -0.31207907 1.5530001 2.3407526e-38
0.24108477 -0.31207907 1.5530001 2.3407161e-38
0.24404287 -0.31207907 1.5530001 2.3407154e-38
0.24700096 -0.31207907 1.5530001 2.3407154e-38
0.24995905 -0.31207907 1.5530001 2.3406796e-38
0.25291717 -0.31207907 1.5530001 2.3407162e-38
0.25587523 -0.31207907 1.5530001 2.3407528e-38
0.25883335 -0.31207907 1.5530001 2.3406803e-38
0.26179144 -0.31207907 1.5530001 2.3406796e-38
0.26474956 -0.31207907 1.5530001 2.3406795e-38
0.30320477 -0.31207907 1.5530001 2.3407133e-38
0.30616286 -0.31207907 1.5530001 2.3407141e-38
0.30912098 -0.31207907 1.5530001 2.3407149e-38
0.31207907 -0.31207907 1.5530001 2.3406073e-38
0.31503716 -0.31207907 1.5530001 2.3406072e-38
0.40378001 -0.31207907 1.5530001 2.3404986e-38
0.4067381 -0.31207907 1.5530001 2.340462e-38
0.40784955 -0.3106724 1.5460001 2.3404613e-38
0.41079432 -0.3106724 1.5460001 2.3404623e-38
0.4156124 -0.31207907 1.5530001 2.3404634e-38
0.41668385 -0.3106724 1.5460001 2.3403908e-38
0.42152861 -0.31207907 1.5530001 2.3403901e-38
-0.74714577 -0.25896096 1.3010001 1.4443478e-38
-0.74180573 -0.25796571 1.296 1.6111597e-38
-0.74218959 -0.25896096 1.3010001 1.5748574e-38
-0.73971152 -0.25896096 1.3010001 1.5293664e-38
-0.74006671 -0.25995621 1.3060001 1.3997527e-38
-0.73757911 -0.25995621 1.3060001 1.2701757e-38
-0.74353433 -0.26294193 1.3210001 1.1597192e-38
-0.74382287 -0.26393718 1.3260001 1.0401162e-38
-0.74129719 -0.26393718 1.3260001 9.8519255e-39
-0.74155718 -0.26493239 1.3310001 9.3026866e-39
-0.7390219 -0.26493239 1.3310001 9.1139751e-39
-0.73648667 -0.26493239 1.3310001 8.9256434e-39
-0.73395145 -0.26493239 1.3310001 9.2011541e-39
-0.73141623 -0.26493239 1.3310001 9.4770151e-39
-0.73861617 -0.2713019 1.363 9.3873278e-39
-0.73872 -0.27229714 1.368 9.2958455e-39
-0.73611432 -0.27229714 1.368 9.2043785e-39
-0.73350859 -0.27229714 1.368 9.204031e-39
-0.73410857 -0.27349144 1.3740001 9.2944316e-39
-0.73415333 -0.27448669 1.3790001 9.2040324e-39
-0.73470956 -0.27568099 1.3850001 9.1125514e-39
-0.73471433 -0.27667621 1.3900001 9.204024e-39
-0.73522669 -0.27787048 1.396 9.387332e-39
-0.73256767 -0.27787048 1.396 8.9277916e-39
-0.73304576 -0.27906477 1.4020001 8.4679065e-39
-0.73298001 -0.28006002 1.4070001 8.9296049e-39
-0.73341435 -0.28125429 1.4130001 9.3887782e-39
-0.73382574 -0.28244859 1.419 9.939787e-39
-0.7345801 -0.28483716 1.4310001 9.847241e-39
-0.73492283 -0.28603142 1.437 9.1118452e-39
-0.74163151 -0.29080859 1.4610001 9.3891537e-39
-0.73884857 -0.29080859 1.4610001 9.2051282e-39
-0.73908865 -0.29200289 1.4670001 9.1132885e-39
-0.73629433 -0.29200289 1.4670001 9.4806277e-39
-0.6842733 -0.30235335 1.5190001 1.7119512e-38
-0.68138003 -0.30235335 1.5190001 1.2306317e-38
-0.67848665 -0.30235335 1.5190001 7.4613258e-39
-0.67826194 -0.30354762 1.5250001 1.2982267e-38
-0.32537144 -0.3105143 1.5600001 2.3402845e-38
-0.3224 -0.3105143 1.5600001 2.3402847e-38
-0.31348571 -0.3105143 1.5600001 2.3403195e-38
-0.3105143 -0.3105143 1.5600001 2.3403188e-38
-0.30754286 -0.3105143 1.5600001 2.3403182e-38
-0.23325716 -0.3105143 1.5600001 2.3405354e-38
-0.23028572 -0.3105143 1.5600001 2.3405354e-38
-0.22731429 -0.3105143 1.5600001 2.3406425e-38
-0.22434287 -0.3105143 1.5600001 2.3406061e-38
-0.22137143 -0.3105143 1.5600001 2.340571e-38
-0.2184 -0.3105143 1.5600001 2.3405361e-38
-0.21542858 -0.3105143 1.5600001 2.3406793e-38
-0.21245714 -0.3105143 1.5600001 2.3406432e-38
-0.20948572 -0.3105143 1.5600001 2.3406435e-38
-0.17977144 -0.3105143 1.5600001 2.3406063e-38
-0.17680001 -0.3105143 1.5600001 2.3406412e-38
-0.17382857 -0.3105143 1.5600001 2.3406784e-38
-0.17085715 -0.3105143 1.5600001 2.3406079e-38
-0.16788572 -0.3105143 1.5600001 2.340572e-38
-0.16491428 -0.3105143 1.5600001 2.3405363e-38
-0.16194287 -0.3105143 1.5600001 2.3405367e-38
-0.11092857 -0.30912098 1.5530001 2.3406442e-38
-0.10797048 -0.30912098 1.5530001 2.34068e-38
-0.10501239 -0.30912098 1.5530001 2.34068e-38
-0.10205429 -0.30912098 1.5530001 2.3407155e-38
-0.099096194 -0.30912098 1.5530001 2.3406793e-38
-0.096138105 -0.30912098 1.5530001 2.3406792e-38
-0.093180001 -0.30912098 1.5530001 2.3406075e-38
-0.090221912 -0.30912098 1.5530001 2.3406077e-38
-0.087263815 -0.30912098 1.5530001 2.340608e-38
-0.083925724 -0.30772763 1.5460001 2.3406076e-38
-0.080980957 -0.30772763 1.5460001 2.3407149e-38
-0.078036197 -0.30772763 1.5460001 2.3406793e-38
-0.075431429 -0.30912098 1.5530001 2.3406439e-38
-0.07247334 -0.30912098 1.5530001 2.3406439e-38
-0.069515243 -0.30912098 1.5530001 2.340644e-38
-0.066557147 -0.30912098 1.5530001 2.3406446e-38
-0.06359905 -0.30912098 1.5530001 2.3406812e-38
-0.051766668 -0.30912098 1.5530001 2.3407515e-38
-0.048808575 -0.30912098 1.5530001 2.3408593e-38
-0.045850478 -0.30912098 1.5530001 2.3408237e-38
-0.042892382 -0.30912098 1.5530001 2.3407895e-38
-0.01922762 -0.30912098 1.5530001 2.3407512e-38
-0.016269524 -0.30912098 1.5530001 2.340787e-38
0.0073952381 -0.30912098 1.5530001 2.3407511e-38
0.010306667 -0.30772763 1.5460001 2.3406798e-38
0.01331143 -0.30912098 1.5530001 2.3406803e-38
0.016269524 -0.30912098 1.5530001 2.3407155e-38
0.01922762 -0.30912098 1.5530001 2.3408224e-38
0.02514381 -0.30912098 1.5530001 2.3408224e-38
0.028101906 -0.30912098 1.5530001 2.3408224e-38
0.031060003 -0.30912098 1.5530001 2.3408224e-38
0.034018096 -0.30912098 1.5530001 2.3408593e-38
0.036976192 -0.30912098 1.5530001 2.3408244e-38
0.039934289 -0.30912098 1.5530001 2.3407882e-38
0.042892382 -0.30912098 1.5530001 2.3407521e-38
0.045850478 -0.30912098 1.5530001 2.3407528e-38
0.24995905 -0.30912098 1.5530001 2.3407515e-38
0.25587523 -0.30912098 1.5530001 2.3407172e-38
0.25883335 -0.30912098 1.5530001 2.3407163e-38
0.26179144 -0.30912098 1.5530001 2.3407155e-38
0.40378001 -0.30912098 1.5530001 2.3404261e-38
0.4067381 -0.30912098 1.5530001 2.3404253e-38
0.40784955 -0.30772763 1.5460001 2.3404246e-38
0.41079432 -0.30772763 1.5460001 2.3404257e-38
0.4156124 -0.30912098 1.5530001 2.3403911e-38
0.41857049 -0.30912098 1.5530001 2.3403548e-38
0.42152861 -0.30912098 1.5530001 2.3403185e-38
0.4244867 -0.30912098 1.5530001 2.3403188e-38
-0.74878001 -0.25451142 1.291 1.1692582e-38
-0.74632096 -0.25451142 1.291 1.1507106e-38
-0.74674284 -0.25549716 1.296 1.1416023e-38
-0.74427426 -0.25549716 1.296 1.1233464e-38
-0.74180573 -0.25549716 1.296 1.1057334e-38
-0.74504197 -0.25746858 1.3060001 9.5671663e-39
-0.74255437 -0.25746858 1.3060001 8.1863856e-39
-0.74290001 -0.25845429 1.3110001 8.3668098e-39
-0.74040288 -0.25845429 1.3110001 8.6466113e-39
-0.74353433 -0.26042575 1.3210001 8.5590694e-39
-0.74382287 -0.26141146 1.3260001 8.4657919e-39
-0.74129719 -0.26141146 1.3260001 8.648021e-39
-0.7387715 -0.26141146 1.3260001 8.9231491e-39
-0.7390219 -0.26239717 1.3310001 8.5554288e-39
-0.73648667 -0.26239717 1.3310001 8.1916713e-39
-0.73395145 -0.26239717 1.3310001 8.8338009e-39
-0.72866863 -0.26141146 1.3260001 9.476655e-39
-0.728881 -0.26239717 1.3310001 9.6606917e-39
-0.73590666 -0.26772001 1.358 9.4788074e-39
-0.73602003 -0.26870573 1.363 9.2958525e-39
-0.73611432 -0.26969141 1.368 9.1125528e-39
-0.73350859 -0.26969141 1.368 9.1118466e-39
-0.73410857 -0.27087432 1.3740001 9.111841e-39
-0.73415333 -0.27186 1.3790001 9.02036e-39
-0.73470956 -0.27304289 1.3850001 9.0200055e-39
-0.73471433 -0.27402857 1.3900001 9.0192936e-39
-0.73522669 -0.27521145 1.396 9.1118298e-39
-0.73256767 -0.27521145 1.396 8.8363079e-39
-0.73304576 -0.27639431 1.4020001 8.6519432e-39
-0.73298001 -0.27738002 1.4070001 9.020744e-39
-0.73341435 -0.27856287 1.4130001 9.3884293e-39
-0.73382574 -0.27974573 1.419 1.0216011e-38
-0.73730576 -0.28211144 1.4310001 1.104181e-38
-0.7345801 -0.28211144 1.4310001 9.9376304e-39
-0.73492283 -0.28329429 1.437 8.9281672e-39
-0.74163151 -0.28802574 1.4610001 9.2969581e-39
-0.73884857 -0.28802574 1.4610001 9.021816e-39
-0.73908865 -0.28920859 1.4670001 8.8385037e-39
-0.73629433 -0.28920859 1.4670001 9.3902355e-39
-0.6842733 -0.29946002 1.5190001 1.9149227e-38
-0.68407142 -0.30064288 1.5250001 1.285733e-38
-0.68116671 -0.30064288 1.5250001 6.6401803e-39
-0.67826194 -0.30064288 1.5250001 1.1962736e-38
-0.23325716 -0.30754286 1.5600001 2.3405354e-38
-0.22731429 -0.30754286 1.5600001 2.3406058e-38
-0.22137143 -0.30754286 1.5600001 2.3405696e-38
-0.2184 -0.30754286 1.5600001 2.3405709e-38
-0.21542858 -0.30754286 1.5600001 2.3406425e-38
-0.21245714 -0.30754286 1.5600001 2.3406425e-38
-0.20948572 -0.30754286 1.5600001 2.3406428e-38
-0.17977144 -0.30754286 1.5600001 2.3406432e-38
-0.17680001 -0.30754286 1.5600001 2.3406789e-38
-0.17382857 -0.30754286 1.5600001 2.3406792e-38
-0.17085715 -0.30754286 1.5600001 2.3406795e-38
-0.16788572 -0.30754286 1.5600001 2.3406436e-38
-0.16491428 -0.30754286 1.5600001 2.3406435e-38
-0.16194287 -0.30754286 1.5600001 2.3406435e-38
-0.12034287 -0.30754286 1.5600001 2.3406436e-38
-0.11737143 -0.30754286 1.5600001 2.3406435e-38
-0.1144 -0.30754286 1.5600001 2.3406436e-38
-0.11092857 -0.30616286 1.5530001 2.3406795e-38
-0.10797048 -0.30616286 1.5530001 2.3406438e-38
-0.10501239 -0.30616286 1.5530001 2.340644e-38
-0.10205429 -0.30616286 1.5530001 2.3406438e-38
-0.099096194 -0.30616286 1.5530001 2.3406795e-38
-0.096138105 -0.30616286 1.5530001 2.3406788e-38
-0.093180001 -0.30616286 1.5530001 2.3406065e-38
-0.090221912 -0.30616286 1.5530001 2.3406079e-38
-0.087263815 -0.30616286 1.5530001 2.3406452e-38
-0.084305719 -0.30616286 1.5530001 2.3406796e-38
-0.081347629 -0.30616286 1.5530001 2.3407141e-38
-0.078389525 -0.30616286 1.5530001 2.3407148e-38
-0.075431429 -0.30616286 1.5530001 2.3407155e-38
-0.07247334 -0.30616286 1.5530001 2.3406798e-38
-0.06982857 -0.30754286 1.5600001 2.3406798e-38
-0.066857144 -0.30754286 1.5600001 2.3406802e-38
-0.054724764 -0.30616286 1.5530001 2.3407882e-38
-0.051766668 -0.30616286 1.5530001 2.3407875e-38
-0.048808575 -0.30616286 1.5530001 2.3408234e-38
-0.045850478 -0.30616286 1.5530001 2.3410388e-38
-0.042892382 -0.30616286 1.5530001 2.3407532e-38
-0.040114287 -0.30754286 1.5600001 2.340683e-38
-0.037142858 -0.30754286 1.5600001 2.3406823e-38
-0.034171429 -0.30754286 1.5600001 2.3407176e-38
-0.031200001 -0.30754286 1.5600001 2.3407172e-38
-0.028228572 -0.30754286 1.5600001 2.3407528e-38
-0.025257142 -0.30754286 1.5600001 2.3407519e-38
-0.022285715 -0.30754286 1.5600001 2.3407512e-38
-0.01922762 -0.30616286 1.5530001 2.340787e-38
-0.016269524 -0.30616286 1.5530001 2.3408228e-38
-0.01331143 -0.30616286 1.5530001 2.3407868e-38
-0.010353333 -0.30616286 1.5530001 2.3407508e-38
-0.0074285716 -0.30754286 1.5600001 2.3408228e-38
-0.0044571431 -0.30754286 1.5600001 2.3408589e-38
-0.0014857143 -0.30754286 1.5600001 2.3408235e-38
0.0014790477 -0.30616286 1.5530001 2.3407522e-38
0.004437143 -0.30616286 1.5530001 2.3407877e-38
0.010306667 -0.3047829 1.5460001 2.3406799e-38
0.01331143 -0.30616286 1.5530001 2.3406084e-38
0.016269524 -0.30616286 1.5530001 2.3407151e-38
0.01922762 -0.30616286 1.5530001 2.3408576e-38
0.02514381 -0.30616286 1.5530001 2.3408935e-38
0.034018096 -0.30616286 1.5530001 2.340858e-38
0.036976192 -0.30616286 1.5530001 2.3408237e-38
0.039934289 -0.30616286 1.5530001 2.3407877e-38
0.042892382 -0.30616286 1.5530001 2.3407517e-38
0.045850478 -0.30616286 1.5530001 2.3407519e-38
0.25883335 -0.30616286 1.5530001 2.3406436e-38
0.26179144 -0.30616286 1.5530001 2.3406428e-38
0.26474956 -0.30616286 1.5530001 2.3407512e-38
0.40378001 -0.30616286 1.5530001 2.3404257e-38
0.4067381 -0.30616286 1.5530001 2.3404256e-38
0.40969622 -0.30616286 1.5530001 2.3404613e-38
0.41265431 -0.30616286 1.5530001 2.3403903e-38
0.4156124 -0.30616286 1.5530001 2.3403551e-38
0.41857049 -0.30616286 1.5530001 2.3403547e-38
0.42152861 -0.30616286 1.5530001 2.3402108e-38
-0.7489115 -0.25127146 1.2870001 1.2430518e-38
-0.74646002 -0.25127146 1.2870001 1.270603e-38
-0.7440086 -0.25127146 1.2870001 1.2247576e-38
-0.74155712 -0.25127146 1.2870001 1.178909e-38
-0.73910576 -0.25127146 1.2870001 1.1513559e-38
-0.73894382 -0.25205237 1.291 1.1238052e-38
-0.73648477 -0.25205237 1.291 1.0124188e-38
-0.74255437 -0.25498095 1.3060001 9.0146287e-39
-0.74006671 -0.25498095 1.3060001 9.0157049e-39
-0.74040288 -0.25595719 1.3110001 9.0167881e-39
-0.74353433 -0.25790954 1.3210001 8.6505293e-39
-0.74382287 -0.25888574 1.3260001 8.277449e-39
-0.74129719 -0.25888574 1.3260001 8.6487399e-39
-0.7387715 -0.25888574 1.3260001 9.108255e-39
-0.73624575 -0.25888574 1.3260001 9.1093116e-39
-0.73372006 -0.25888574 1.3260001 9.1107395e-39
-0.73119432 -0.25888574 1.3260001 9.2944035e-39
-0.72866863 -0.25888574 1.3260001 9.4784487e-39
-0.728881 -0.25986192 1.3310001 9.7539706e-39
-0.72907436 -0.26083809 1.3360001 1.0029829e-38
-0.73251152 -0.26298571 1.3470001 9.7557516e-39
-0.73590666 -0.26513335 1.358 9.4816815e-39
-0.73602003 -0.26610953 1.363 9.2043841e-39
-0.73611432 -0.2670857 1.368 8.9288902e-39
-0.73350859 -0.2670857 1.368 9.020381e-39
-0.73090285 -0.2670857 1.368 9.1118466e-39
-0.73149145 -0.26825714 1.3740001 9.0196411e-39
-0.73152667 -0.26923335 1.3790001 8.9278197e-39
-0.73207146 -0.27040479 1.3850001 9.0196692e-39
-0.73206669 -0.27138096 1.3900001 9.2036709e-39
-0.73256767 -0.27255237 1.396 8.9277776e-39
-0.73304576 -0.27372381 1.4020001 8.7427095e-39
-0.73298001 -0.27470002 1.4070001 9.0200475e-39
-0.73341435 -0.27587143 1.4130001 9.2962462e-39
-0.73730576 -0.27938572 1.4310001 1.049115e-38
-0.73765999 -0.28055716 1.437 9.7561006e-39
-0.73492283 -0.28055716 1.437 9.1129074e-39
-0.73858571 -0.28407142 1.455 9.3887922e-39
-0.73884857 -0.28524286 1.4610001 9.2051282e-39
-0.73606575 -0.28524286 1.4610001 9.1143731e-39
-0.73328286 -0.28524286 1.4610001 9.481362e-39
-0.73350006 -0.2864143 1.4670001 9.9401863e-39
-0.73369431 -0.28758571 1.473 9.8465642e-39
-0.68697625 -0.29773813 1.5250001 2.0077275e-38
-0.68407142 -0.29773813 1.5250001 1.3728691e-38
-0.68116671 -0.29773813 1.5250001 7.4720751e-39
-0.23325716 -0.30457145 1.5600001 2.3406073e-38
-0.23028572 -0.30457145 1.5600001 2.3405714e-38
-0.22731429 -0.30457145 1.5600001 2.3404614e-38
-0.22137143 -0.30457145 1.5600001 2.3406041e-38
-0.2184 -0.30457145 1.5600001 2.3406058e-38
-0.21542858 -0.30457145 1.5600001 2.3406417e-38
-0.18274286 -0.30457145 1.5600001 2.3406792e-38
-0.17977144 -0.30457145 1.5600001 2.34068e-38
-0.17680001 -0.30457145 1.5600001 2.3406809e-38
-0.17382857 -0.30457145 1.5600001 2.3407161e-38
-0.17085715 -0.30457145 1.5600001 2.3406795e-38
-0.16788572 -0.30457145 1.5600001 2.3406792e-38
-0.16491428 -0.30457145 1.5600001 2.3406432e-38
-0.16194287 -0.30457145 1.5600001 2.3406426e-38
-0.12034287 -0.30457145 1.5600001 2.3406793e-38
-0.11737143 -0.30457145 1.5600001 2.3406435e-38
-0.1144 -0.30457145 1.5600001 2.3406433e-38
-0.11142858 -0.30457145 1.5600001 2.3406432e-38
-0.10797048 -0.30320477 1.5530001 2.3406435e-38
-0.10501239 -0.30320477 1.5530001 2.3406439e-38
-0.10251429 -0.30457145 1.5600001 2.3406439e-38
-0.099542864 -0.30457145 1.5600001 2.3406439e-38
-0.096571431 -0.30457145 1.5600001 2.3407144e-38
-0.093600005 -0.30457145 1.5600001 2.3406772e-38
-0.090628572 -0.30457145 1.5600001 2.3406798e-38
-0.087657146 -0.30457145 1.5600001 2.3407183e-38
-0.084305719 -0.30320477 1.5530001 2.3407875e-38
-0.081347629 -0.30320477 1.5530001 2.3407491e-38
-0.078389525 -0.30320477 1.5530001 2.3407503e-38
-0.075771436 -0.30457145 1.5600001 2.3407514e-38
-0.072800003 -0.30457145 1.5600001 2.3408231e-38
-0.06982857 -0.30457145 1.5600001 2.3407874e-38
-0.066857144 -0.30457145 1.5600001 2.3407517e-38
-0.063885719 -0.30457145 1.5600001 2.3407519e-38
-0.052000001 -0.30457145 1.5600001 2.3407877e-38
-0.048808575 -0.30320477 1.5530001 2.3408235e-38
-0.046057142 -0.30457145 1.5600001 2.3407877e-38
-0.043085717 -0.30457145 1.5600001 2.3407529e-38
-0.040114287 -0.30457145 1.5600001 2.340754e-38
-0.037142858 -0.30457145 1.5600001 2.3407536e-38
-0.034171429 -0.30457145 1.5600001 2.3407532e-38
-0.031200001 -0.30457145 1.5600001 2.3407529e-38
-0.028228572 -0.30457145 1.5600001 2.3407169e-38
-0.025257142 -0.30457145 1.5600001 2.3409312e-38
-0.022285715 -0.30457145 1.5600001 2.3408944e-38
-0.019314285 -0.30457145 1.5600001 2.3408587e-38
-0.016269524 -0.30320477 1.5530001 2.340823e-38
-0.010353333 -0.30320477 1.5530001 2.3408207e-38
-0.0074285716 -0.30457145 1.5600001 2.3408576e-38
-0.0044571431 -0.30457145 1.5600001 2.3408587e-38
-0.0014857143 -0.30457145 1.5600001 2.3408589e-38
0.0014790477 -0.30320477 1.5530001 2.3407874e-38
0.004437143 -0.30320477 1.5530001 2.3408233e-38
0.0073952381 -0.30320477 1.5530001 2.3407156e-38
0.010353333 -0.30320477 1.5530001 2.3406799e-38
0.01331143 -0.30320477 1.5530001 2.3408237e-38
0.016269524 -0.30320477 1.5530001 2.3410018e-38
0.01922762 -0.30320477 1.5530001 2.3409647e-38
0.022285715 -0.30457145 1.5600001 2.3409647e-38
0.025257142 -0.30457145 1.5600001 2.3408929e-38
0.028228572 -0.30457145 1.5600001 2.34082e-38
0.031200001 -0.30457145 1.5600001 2.3408548e-38
0.034018096 -0.30320477 1.5530001 2.3408569e-38
0.036976192 -0.30320477 1.5530001 2.3408949e-38
0.039934289 -0.30320477 1.5530001 2.3409306e-38
0.042892382 -0.30320477 1.5530001 2.3408947e-38
0.045850478 -0.30320477 1.5530001 2.3408944e-38
0.049028575 -0.30457145 1.5600001 2.3408584e-38
0.052000001 -0.30457145 1.5600001 2.3408579e-38
0.05497143 -0.30457145 1.5600001 2.3408573e-38
0.05794286 -0.30457145 1.5600001 2.3408577e-38
0.060914289 -0.30457145 1.5600001 2.340894e-38
0.063885719 -0.30457145 1.5600001 2.3409659e-38
0.066857144 -0.30457145 1.5600001 2.3408943e-38
0.06982857 -0.30457145 1.5600001 2.3408589e-38
0.072800003 -0.30457145 1.5600001 2.3408594e-38
0.078742854 -0.30457145 1.5600001 2.3409338e-38
0.081714287 -0.30457145 1.5600001 2.3409683e-38
0.084685721 -0.30457145 1.5600001 2.340967e-38
0.087657146 -0.30457145 1.5600001 2.3409668e-38
0.090628572 -0.30457145 1.5600001 2.3409666e-38
0.093600005 -0.30457145 1.5600001 2.3409668e-38
0.096571431 -0.30457145 1.5600001 2.3409312e-38
0.099542864 -0.30457145 1.5600001 2.3409309e-38
0.10251429 -0.30457145 1.5600001 2.3408589e-38
0.10548571 -0.30457145 1.5600001 2.3408949e-38
0.1144 -0.30457145 1.5600001 2.3408601e-38
0.11737143 -0.30457145 1.5600001 2.3407879e-38
0.12034287 -0.30457145 1.5600001 2.3408951e-38
0.25883335 -0.30320477 1.5530001 2.3406426e-38
0.26179144 -0.30320477 1.5530001 2.3407135e-38
0.26474956 -0.30320477 1.5530001 2.3408221e-38
0.40969622 -0.30320477 1.5530001 2.3404264e-38
0.41265431 -0.30320477 1.5530001 2.3403907e-38
0.4156124 -0.30320477 1.5530001 2.3403551e-38
-0.74600196 -0.24785334 1.2820001 1.3168091e-38
-0.74646002 -0.24882001 1.2870001 1.3810573e-38
-0.7440086 -0.24882001 1.2870001 1.2983687e-38
-0.73867625 -0.24785334 1.2820001 1.2156421e-38
-0.73910576 -0.24882001 1.2870001 1.179192e-38
-0.73894382 -0.24959333 1.291 1.1419555e-38
-0.73648477 -0.24959333 1.291 1.0589806e-38
-0.73686856 -0.25056002 1.296 9.8440054e-39
-0.73439997 -0.25056002 1.296 9.6642847e-39
-0.73193145 -0.25056002 1.296 9.4773837e-39
-0.7379058 -0.25346002 1.3110001 8.742341e-39
-0.73540866 -0.25346002 1.3110001 8.0987821e-39
-0.74129719 -0.25635999 1.3260001 8.6494433e-39
-0.7387715 -0.25635999 1.3260001 9.2933554e-39
-0.73624575 -0.25635999 1.3260001 9.6617623e-39
-0.73372006 -0.25635999 1.3260001 1.0029469e-38
-0.73119432 -0.25635999 1.3260001 9.7554041e-39
-0.72866863 -0.25635999 1.3260001 9.5724534e-39
-0.72614294 -0.25635999 1.3260001 9.8486787e-39
-0.72907436 -0.25829333 1.3360001 1.0216017e-38
-0.73251152 -0.26042002 1.3470001 9.8490277e-39
-0.73265529 -0.26138669 1.3520001 9.5728023e-39
-0.73602003 -0.26351333 1.363 9.112906e-39
-0.73611432 -0.26447999 1.368 8.7452066e-39
-0.73350859 -0.26447999 1.368 8.9288776e-39
-0.73090285 -0.26447999 1.368 9.111471e-39
-0.73149145 -0.26564002 1.3740001 9.0196341e-39
-0.72887433 -0.26564002 1.3740001 8.9278084e-39
-0.72890002 -0.26660669 1.3790001 9.1118494e-39
-0.73206669 -0.26873335 1.3900001 9.2955022e-39
-0.73256767 -0.26989332 1.396 9.1110955e-39
-0.73304576 -0.27105334 1.4020001 8.9274483e-39
-0.7361058 -0.27318001 1.4130001 9.0196664e-39
-0.73341435 -0.27318001 1.4130001 9.2036793e-39
-0.73382574 -0.27434 1.419 9.5717219e-39
-0.73730576 -0.27666 1.4310001 9.9387038e-39
-0.7345801 -0.27666 1.4310001 9.6631959e-39
-0.73492283 -0.27781999 1.437 9.3880579e-39
-0.7352429 -0.27898002 1.4430001 9.3884265e-39
-0.73858571 -0.28130001 1.455 9.4802662e-39
-0.73581433 -0.28130001 1.455 9.4802704e-39
-0.73304284 -0.28130001 1.455 9.4813466e-39
-0.73328286 -0.28246 1.4610001 9.665019e-39
-0.73350006 -0.28362003 1.4670001 9.8476236e-39
-0.73369431 -0.28478 1.473 9.6628876e-39
-0.68407142 -0.29483333 1.5250001 1.4640626e-38
-0.23325716 -0.30160001 1.5600001 2.3405714e-38
-0.18274286 -0.30160001 1.5600001 2.3407149e-38
-0.17977144 -0.30160001 1.5600001 2.3407155e-38
-0.17680001 -0.30160001 1.5600001 2.3407162e-38
-0.17382857 -0.30160001 1.5600001 2.3407155e-38
-0.17085715 -0.30160001 1.5600001 2.3407149e-38
-0.16788572 -0.30160001 1.5600001 2.3406791e-38
-0.16491428 -0.30160001 1.5600001 2.3406792e-38
-0.16194287 -0.30160001 1.5600001 2.3406428e-38
-0.12034287 -0.30160001 1.5600001 2.3406429e-38
-0.11737143 -0.30160001 1.5600001 2.3406073e-38
-0.1144 -0.30160001 1.5600001 2.3406424e-38
-0.11142858 -0.30160001 1.5600001 2.3406775e-38
-0.10845715 -0.30160001 1.5600001 2.3406428e-38
-0.10548571 -0.30160001 1.5600001 2.3406439e-38
-0.10251429 -0.30160001 1.5600001 2.3406446e-38
-0.099542864 -0.30160001 1.5600001 2.3406454e-38
-0.096571431 -0.30160001 1.5600001 2.3406798e-38
-0.093600005 -0.30160001 1.5600001 2.3407498e-38
-0.090628572 -0.30160001 1.5600001 2.3407511e-38
-0.087657146 -0.30160001 1.5600001 2.3407525e-38
-0.084685721 -0.30160001 1.5600001 2.3407511e-38
-0.081714287 -0.30160001 1.5600001 2.3407857e-38
-0.078742854 -0.30160001 1.5600001 2.3407868e-38
-0.075771436 -0.30160001 1.5600001 2.3407881e-38
-0.072800003 -0.30160001 1.5600001 2.3407878e-38
-0.06982857 -0.30160001 1.5600001 2.3407875e-38
-0.05497143 -0.30160001 1.5600001 2.340787e-38
-0.052000001 -0.30160001 1.5600001 2.340823e-38
-0.049028575 -0.30160001 1.5600001 2.3408231e-38
-0.046057142 -0.30160001 1.5600001 2.3407872e-38
-0.043085717 -0.30160001 1.5600001 2.3407882e-38
-0.040114287 -0.30160001 1.5600001 2.3408252e-38
-0.037142858 -0.30160001 1.5600001 2.3407536e-38
-0.034171429 -0.30160001 1.5600001 2.3407896e-38
-0.031200001 -0.30160001 1.5600001 2.3407531e-38
-0.028228572 -0.30160001 1.5600001 2.3407165e-38
-0.025257142 -0.30160001 1.5600001 2.3408237e-38
-0.022285715 -0.30160001 1.5600001 2.3405004e-38
-0.01922762 -0.30024669 1.5530001 2.3406803e-38
-0.016269524 -0.30024669 1.5530001 2.3408603e-38
-0.01331143 -0.30024669 1.5530001 2.3408591e-38
-0.010353333 -0.30024669 1.5530001 2.340858e-38
-0.0074285716 -0.30160001 1.5600001 2.3408226e-38
-0.0044571431 -0.30160001 1.5600001 2.3407514e-38
-0.0014857143 -0.30160001 1.5600001 2.3407511e-38
0.0014790477 -0.30024669 1.5530001 2.3407867e-38
0.004437143 -0.30024669 1.5530001 2.3407512e-38
0.0073952381 -0.30024669 1.5530001 2.3407156e-38
0.010353333 -0.30024669 1.5530001 2.3407515e-38
0.01331143 -0.30024669 1.5530001 2.3410742e-38
0.016269524 -0.30024669 1.5530001 2.34093e-38
0.019314285 -0.30160001 1.5600001 2.3409293e-38
0.022285715 -0.30160001 1.5600001 2.3409293e-38
0.025257142 -0.30160001 1.5600001 2.3409295e-38
0.028228572 -0.30160001 1.5600001 2.3408213e-38
0.031200001 -0.30160001 1.5600001 2.3408568e-38
0.034171429 -0.30160001 1.5600001 2.3408944e-38
0.037142858 -0.30160001 1.5600001 2.3409321e-38
0.040114287 -0.30160001 1.5600001 2.3409313e-38
0.042892382 -0.30024669 1.5530001 2.3409306e-38
0.046057142 -0.30160001 1.5600001 2.3409303e-38
0.052000001 -0.30160001 1.5600001 2.340894e-38
0.05497143 -0.30160001 1.5600001 2.340822e-38
0.05794286 -0.30160001 1.5600001 2.3408223e-38
0.060914289 -0.30160001 1.5600001 2.3409302e-38
0.063885719 -0.30160001 1.5600001 2.3409302e-38
0.066857144 -0.30160001 1.5600001 2.3409303e-38
0.06982857 -0.30160001 1.5600001 2.3408587e-38
0.072800003 -0.30160001 1.5600001 2.3408231e-38
0.078742854 -0.30160001 1.5600001 2.3410042e-38
0.081714287 -0.30160001 1.5600001 2.3409316e-38
0.084685721 -0.30160001 1.5600001 2.340859e-38
0.087657146 -0.30160001 1.5600001 2.3409309e-38
0.090628572 -0.30160001 1.5600001 2.3410388e-38
0.093600005 -0.30160001 1.5600001 2.3410756e-38
0.10251429 -0.30160001 1.5600001 2.3408594e-38
0.10548571 -0.30160001 1.5600001 2.3408594e-38
0.10845715 -0.30160001 1.5600001 2.3408596e-38
