# .PCD v0.7 - Point Cloud Data file format
VERSION 0.7
FIELDS x y z rgb
SIZE 4 4 4 4
TYPE F F F F
COUNT 1 1 1 1
WIDTH 1070
HEIGHT 1
VIEWPOINT 0 0 0 1 0 0 0
POINTS 1070
DATA ascii
-0.15036 0.068531431 1.074 2.341671e-38
-0.14270668 0.068786673 1.0780001 2.3415184e-38
-0.13808572 0.068531431 1.074 2.3415186e-38
-0.13603999 0.068531431 1.074 2.3415545e-38
-0.13399428 0.068531431 1.074 2.3414829e-38
-0.12917715 0.068148576 1.0680001 2.3414829e-38
-0.12714288 0.068148576 1.0680001 2.3415239e-38
-0.18817145 0.070182867 1.0680001 2.1925894e-38
-0.18613715 0.070182867 1.0680001 2.2659858e-38
-0.18462001 0.07038001 1.0710001 2.3404512e-38
-0.18206859 0.070182867 1.0680001 2.3413764e-38
-0.18003429 0.070182867 1.0680001 2.341378e-38
-0.178 0.070182867 1.0680001 2.3414157e-38
-0.17646001 0.07038001 1.0710001 2.3414139e-38
-0.17442001 0.07038001 1.0710001 2.3414481e-38
-0.17238002 0.07038001 1.0710001 2.341341e-38
-0.17034 0.07038001 1.0710001 2.3412699e-38
-0.16877143 0.070577145 1.074 2.3414501e-38
-0.16672571 0.070577145 1.074 2.3415945e-38
-0.16218002 0.07038001 1.0710001 2.3415196e-38
-0.16014002 0.07038001 1.0710001 2.3416279e-38
-0.15810002 0.07038001 1.0710001 2.3417005e-38
-0.15562285 0.070182867 1.0680001 2.3416639e-38
-0.15402001 0.07038001 1.0710001 2.3416272e-38
-0.15198001 0.07038001 1.0710001 2.3416289e-38
-0.14994001 0.07038001 1.0710001 2.3416306e-38
-0.14790002 0.07038001 1.0710001 2.3415924e-38
-0.13566001 0.07038001 1.0710001 2.3415186e-38
-0.13362001 0.07038001 1.0710001 2.3414829e-38
-0.13121143 0.070182867 1.0680001 2.3414827e-38
-0.12917715 0.070182867 1.0680001 2.3415186e-38
-0.12714288 0.070182867 1.0680001 2.3414522e-38
-0.18341333 0.071946666 1.064 2.3406653e-38
-0.18138668 0.071946666 1.064 2.3413752e-38
-0.17936 0.071946666 1.064 2.3413427e-38
-0.17530668 0.071946666 1.064 2.3413787e-38
-0.17328 0.071946666 1.064 2.3414112e-38
-0.17125332 0.071946666 1.064 2.3417338e-38
-0.16922666 0.071946666 1.064 2.3413389e-38
-0.16172573 0.072217144 1.0680001 2.3414841e-38
-0.15969144 0.072217144 1.0680001 2.3417345e-38
-0.15765715 0.072217144 1.0680001 2.341698e-38
-0.15562285 0.072217144 1.0680001 2.3416619e-38
-0.15358858 0.072217144 1.0680001 2.3416619e-38
-0.1515543 0.072217144 1.0680001 2.3416619e-38
-0.14952001 0.072217144 1.0680001 2.3416261e-38
-0.14748573 0.072217144 1.0680001 2.3416259e-38
-0.14545144 0.072217144 1.0680001 2.3415183e-38
-0.13934858 0.072217144 1.0680001 2.3415183e-38
-0.13731429 0.072217144 1.0680001 2.3413748e-38
-0.13528 0.072217144 1.0680001 2.3412673e-38
-0.13071999 0.071946666 1.064 2.3413751e-38
-0.12869334 0.071946666 1.064 2.3413751e-38
-0.12666667 0.071946666 1.064 2.3414163e-38
-0.12464 0.071946666 1.064 2.3314489e-38
-0.18544 0.073973328 1.064 2.2942511e-38
-0.18341333 0.073973328 1.064 2.3409156e-38
-0.18138668 0.073973328 1.064 2.3414112e-38
-0.17936 0.073973328 1.064 2.3413778e-38
-0.17733333 0.073973328 1.064 2.3413443e-38
-0.17530668 0.073973328 1.064 2.3413417e-38
-0.17328 0.073973328 1.064 2.3413751e-38
-0.17125332 0.073973328 1.064 2.341375e-38
-0.16874953 0.073764771 1.0610001 2.3414107e-38
-0.1672 0.073973328 1.064 2.3414121e-38
-0.16517334 0.073973328 1.064 2.3414854e-38
-0.16314666 0.073973328 1.064 2.3414843e-38
-0.16112 0.073973328 1.064 2.3414833e-38
-0.15909334 0.073973328 1.064 2.3415194e-38
-0.15706666 0.073973328 1.064 2.3415556e-38
-0.15504001 0.073973328 1.064 2.3416984e-38
-0.15301333 0.073973328 1.064 2.3417335e-38
-0.14085333 0.073973328 1.064 2.3414824e-38
-0.13882667 0.073973328 1.064 2.3414107e-38
-0.13679999 0.073973328 1.064 2.3411237e-38
-0.13477334 0.073973328 1.064 2.3411959e-38
-0.13274667 0.073973328 1.064 2.3412682e-38
-0.13071999 0.073973328 1.064 2.3413408e-38
-0.12869334 0.073973328 1.064 2.3414492e-38
-0.12630954 0.073764771 1.0610001 2.3412732e-38
-0.12464 0.073973328 1.064 2.3312322e-38
-0.12226763 0.073764771 1.0610001 2.3304119e-38
-0.18640953 0.075571433 1.0580001 2.2940381e-38
-0.18491717 0.075785719 1.0610001 2.3127597e-38
-0.1828962 0.075785719 1.0610001 2.3412018e-38
-0.18138668 0.076000005 1.064 2.3414115e-38
-0.17936 0.076000005 1.064 2.3414128e-38
-0.17733333 0.076000005 1.064 2.3413423e-38
-0.17481241 0.075785719 1.0610001 2.3413406e-38
-0.17279144 0.075785719 1.0610001 2.3413748e-38
-0.1707705 0.075785719 1.0610001 2.3414107e-38
-0.16874953 0.075785719 1.0610001 2.3414107e-38
-0.16672859 0.075785719 1.0610001 2.3414466e-38
-0.16066574 0.075785719 1.0610001 2.3415183e-38
-0.15864477 0.075785719 1.0610001 2.3415196e-38
-0.15662383 0.075785719 1.0610001 2.3416284e-38
-0.14812002 0.075571433 1.0580001 2.3417337e-38
-0.14610478 0.075571433 1.0580001 2.3417335e-38
-0.14408953 0.075571433 1.0580001 2.3415183e-38
-0.13843524 0.075785719 1.0610001 2.3413389e-38
-0.13679999 0.076000005 1.064 2.3412672e-38
-0.13439335 0.075785719 1.0610001 2.3417342e-38
-0.13237239 0.075785719 1.0610001 2.3417351e-38
-0.13035144 0.075785719 1.0610001 2.3417369e-38
-0.12833048 0.075785719 1.0610001 2.3413441e-38
-0.12630954 0.075785719 1.0610001 2.3411662e-38
-0.12226763 0.075785719 1.0610001 2.3305183e-38
-0.12024668 0.075785719 1.0610001 2.2845695e-38
-0.18588097 0.077366672 1.0550001 2.3400242e-38
-0.1843943 0.077586666 1.0580001 2.3404481e-38
-0.18237907 0.077586666 1.0580001 2.3414498e-38
-0.18087526 0.077806674 1.0610001 2.3414112e-38
-0.1788543 0.077806674 1.0610001 2.3413759e-38
-0.17683335 0.077806674 1.0610001 2.3413408e-38
-0.1743181 0.077586666 1.0580001 2.3413398e-38
-0.17230287 0.077586666 1.0580001 2.3413748e-38
-0.17028764 0.077586666 1.0580001 2.3414466e-38
-0.16827239 0.077586666 1.0580001 2.3410878e-38
-0.16578573 0.077366672 1.0550001 2.3414824e-38
-0.1637762 0.077366672 1.0550001 2.3415543e-38
-0.16176668 0.077366672 1.0550001 2.3415903e-38
-0.15975715 0.077366672 1.0550001 2.3416624e-38
-0.15372857 0.077366672 1.0550001 2.3417354e-38
-0.15171905 0.077366672 1.0550001 2.3417348e-38
-0.14970952 0.077366672 1.0550001 2.3417348e-38
-0.14770001 0.077366672 1.0550001 2.3417348e-38
-0.14569049 0.077366672 1.0550001 2.3416635e-38
-0.14368096 0.077366672 1.0550001 2.3415205e-38
-0.14167143 0.077366672 1.0550001 2.3414118e-38
-0.13966191 0.077366672 1.0550001 2.341375e-38
-0.13804382 0.077586666 1.0580001 2.3413748e-38
-0.13602859 0.077586666 1.0580001 2.3414107e-38
-0.13401334 0.077586666 1.0580001 2.3413752e-38
-0.13199811 0.077586666 1.0580001 2.3413758e-38
-0.13035144 0.077806674 1.0610001 2.3413054e-38
-0.12833048 0.077806674 1.0610001 2.341271e-38
-0.12595239 0.077586666 1.0580001 2.3411307e-38
-0.12393716 0.077586666 1.0580001 2.3399501e-38
-0.12226763 0.077806674 1.0610001 2.3396669e-38
-0.12024668 0.077806674 1.0610001 2.2937888e-38
-0.18588097 0.079376198 1.0550001 2.3400928e-38
-0.18387145 0.079376198 1.0550001 2.3406578e-38
-0.18036382 0.079601914 1.0580001 2.341411e-38
-0.17834859 0.079601914 1.0580001 2.3413392e-38
-0.17633334 0.079601914 1.0580001 2.3413035e-38
-0.17382382 0.079376198 1.0550001 2.3413032e-38
-0.17230287 0.079601914 1.0580001 2.3413748e-38
-0.17028764 0.079601914 1.0580001 2.3414824e-38
-0.16779526 0.079376198 1.0550001 2.3414824e-38
-0.16578573 0.079376198 1.0550001 2.3415183e-38
-0.1637762 0.079376198 1.0550001 2.3415902e-38
-0.16130668 0.079150476 1.052 2.3417341e-38
-0.15930286 0.079150476 1.052 2.3417347e-38
-0.15729904 0.079150476 1.052 2.3417354e-38
-0.15529525 0.079150476 1.052 2.3417361e-38
-0.15329143 0.079150476 1.052 2.3417361e-38
-0.15128762 0.079150476 1.052 2.3417361e-38
-0.14928381 0.079150476 1.052 2.3417361e-38
-0.14728001 0.079150476 1.052 2.3417361e-38
-0.1452762 0.079150476 1.052 2.3416294e-38
-0.14368096 0.079376198 1.0550001 2.3415228e-38
-0.14167143 0.079376198 1.0550001 2.3414489e-38
-0.13966191 0.079376198 1.0550001 2.3415186e-38
-0.13765238 0.079376198 1.0550001 2.3416261e-38
-0.13564286 0.079376198 1.0550001 2.3414824e-38
-0.13363333 0.079376198 1.0550001 2.3413032e-38
-0.1316238 0.079376198 1.0550001 2.3413752e-38
-0.12998286 0.079601914 1.0580001 2.3414838e-38
-0.12796763 0.079601914 1.0580001 2.3411978e-38
-0.12595239 0.079601914 1.0580001 2.341131e-38
-0.12393716 0.079601914 1.0580001 2.330661e-38
-0.12226763 0.079827629 1.0610001 2.3213008e-38
-0.12024668 0.079827629 1.0610001 2.2937888e-38
-0.17382382 0.081385717 1.0550001 2.3414108e-38
-0.17181429 0.081385717 1.0550001 2.3415901e-38
-0.16980477 0.081385717 1.0550001 2.3415545e-38
-0.16779526 0.081385717 1.0550001 2.3415189e-38
-0.16069335 0.080845721 1.0480001 2.3417354e-38
-0.15869716 0.080845721 1.0480001 2.3417369e-38
-0.1562524 0.080614291 1.0450001 2.341737e-38
-0.1542619 0.080614291 1.0450001 2.3417372e-38
-0.15227143 0.080614291 1.0450001 2.3417368e-38
-0.14126857 0.081154287 1.052 2.3416998e-38
-0.13926478 0.081154287 1.052 2.3416621e-38
-0.12796763 0.081617147 1.0580001 2.3411307e-38
-0.12393716 0.081617147 1.0580001 2.3213678e-38
-0.12192191 0.081617147 1.0580001 2.3121524e-38
-0.18411906 0.082604766 1.0450001 2.3406328e-38
-0.18212858 0.082604766 1.0450001 2.3412683e-38
-0.17962095 0.082367629 1.0420001 2.3417344e-38
-0.17814763 0.082604766 1.0450001 2.3416265e-38
-0.16268954 0.08284191 1.0480001 2.3416984e-38
-0.15824287 0.082604766 1.0450001 2.3417393e-38
-0.1562524 0.082604766 1.0450001 2.3417387e-38
-0.15381905 0.082367629 1.0420001 2.3417383e-38
-0.15183429 0.082367629 1.0420001 2.3417375e-38
-0.15028097 0.082604766 1.0450001 2.3417366e-38
-0.14829049 0.082604766 1.0450001 2.3417366e-38
-0.14348096 0.082130477 1.039 2.3417368e-38
-0.13358571 0.082130477 1.039 2.3417351e-38
-0.12276572 0.08284191 1.0480001 2.3121104e-38
-0.18557525 0.084352389 1.0420001 2.2848579e-38
-0.18359047 0.084352389 1.0420001 2.340632e-38
-0.18160571 0.084352389 1.0420001 2.3416635e-38
-0.17962095 0.084352389 1.0420001 2.3417345e-38
-0.17763619 0.084352389 1.0420001 2.341734e-38
-0.17565143 0.084352389 1.0420001 2.3417342e-38
-0.17366667 0.084352389 1.0420001 2.3417345e-38
-0.17168191 0.084352389 1.0420001 2.3417344e-38
-0.15778857 0.084352389 1.0420001 2.3417425e-38
-0.15580381 0.084352389 1.0420001 2.341741e-38
-0.15381905 0.084352389 1.0420001 2.3417394e-38
-0.15139715 0.084109522 1.039 2.3417389e-38
-0.14984953 0.084352389 1.0420001 2.3416666e-38
-0.14786477 0.084352389 1.0420001 2.3417386e-38
-0.14545999 0.084109522 1.039 2.3417389e-38
-0.14348096 0.084109522 1.039 2.3417399e-38
-0.14109333 0.083866663 1.036 2.3417408e-38
-0.13952287 0.084109522 1.039 2.3417387e-38
-0.13714667 0.083866663 1.036 2.3417366e-38
-0.13556476 0.084109522 1.039 2.3417373e-38
-0.13358571 0.084109522 1.039 2.3417382e-38
-0.13160668 0.084109522 1.039 2.3417382e-38
-0.12962763 0.084109522 1.039 2.3417382e-38
-0.12764858 0.084109522 1.039 2.3417404e-38
-0.12276572 0.0848381 1.0480001 2.3120405e-38
-0.18557525 0.086337149 1.0420001 2.2756004e-38
-0.18306191 0.086088575 1.039 2.3406311e-38
-0.18108286 0.086088575 1.039 2.3416999e-38
-0.17910381 0.086088575 1.039 2.3417348e-38
-0.17712477 0.086088575 1.039 2.341734e-38
-0.17514572 0.086088575 1.039 2.3417345e-38
-0.17316668 0.086088575 1.039 2.3417351e-38
-0.17118762 0.086088575 1.039 2.3417349e-38
-0.16920857 0.086088575 1.039 2.3417349e-38
-0.16036095 0.085591428 1.033 2.341737e-38
-0.15839334 0.085591428 1.033 2.3417414e-38
-0.1494181 0.086088575 1.039 2.34174e-38
-0.14743905 0.086088575 1.039 2.3417406e-38
-0.14504001 0.085840002 1.036 2.3417411e-38
-0.14306666 0.085840002 1.036 2.3417428e-38
-0.14109333 0.085840002 1.036 2.3417446e-38
-0.13912 0.085840002 1.036 2.341742e-38
-0.13714667 0.085840002 1.036 2.3417393e-38
-0.13517334 0.085840002 1.036 2.3417403e-38
-0.1332 0.085840002 1.036 2.3417413e-38
-0.13160668 0.086088575 1.039 2.3417413e-38
-0.12962763 0.086088575 1.039 2.3417413e-38
-0.12764858 0.086088575 1.039 2.3417406e-38
-0.12566952 0.086088575 1.039 2.3408432e-38
-0.12369048 0.086088575 1.039 2.3394468e-38
-0.18504095 0.088067621 1.039 2.2571984e-38
-0.18253334 0.087813333 1.036 2.3410269e-38
-0.18055999 0.087813333 1.036 2.341737e-38
-0.17858668 0.087813333 1.036 2.3417372e-38
-0.17661333 0.087813333 1.036 2.3417373e-38
-0.17464 0.087813333 1.036 2.3417379e-38
-0.17266667 0.087813333 1.036 2.3417385e-38
-0.17019905 0.087559044 1.033 2.3417382e-38
-0.16872001 0.087813333 1.036 2.341738e-38
-0.1662638 0.087559044 1.033 2.3417368e-38
-0.16381906 0.087304763 1.0300001 2.3417356e-38
-0.16185716 0.087304763 1.0300001 2.3417362e-38
-0.15989526 0.087304763 1.0300001 2.3417368e-38
-0.15793335 0.087304763 1.0300001 2.3417399e-38
-0.15597145 0.087304763 1.0300001 2.3417429e-38
-0.15400954 0.087304763 1.0300001 2.3417418e-38
-0.15204762 0.087304763 1.0300001 2.3417407e-38
-0.15008572 0.087304763 1.0300001 2.3417406e-38
-0.14855523 0.087559044 1.033 2.3417404e-38
-0.14658761 0.087559044 1.033 2.3417406e-38
-0.14462 0.087559044 1.033 2.3417408e-38
-0.14265238 0.087559044 1.033 2.3417421e-38
-0.14068475 0.087559044 1.033 2.3417434e-38
-0.13871714 0.087559044 1.033 2.3417418e-38
-0.13674952 0.087559044 1.033 2.3417404e-38
-0.1347819 0.087559044 1.033 2.341742e-38
-0.13281429 0.087559044 1.033 2.3417436e-38
-0.13122666 0.087813333 1.036 2.3417418e-38
-0.12925333 0.087813333 1.036 2.3417399e-38
-0.12728 0.087813333 1.036 2.3416307e-38
-0.12530667 0.087813333 1.036 2.3404095e-38
-0.12333333 0.087813333 1.036 2.3396599e-38
-0.12136 0.087813333 1.036 2.3304444e-38
-0.18200475 0.089526661 1.033 2.3414226e-38
-0.18055999 0.089786664 1.036 2.3417385e-38
-0.17858668 0.089786664 1.036 2.3417396e-38
-0.17661333 0.089786664 1.036 2.3417408e-38
-0.17464 0.089786664 1.036 2.3417413e-38
-0.17216666 0.089526661 1.033 2.3417418e-38
-0.17019905 0.089526661 1.033 2.3417414e-38
-0.16823143 0.089526661 1.033 2.3417411e-38
-0.1662638 0.089526661 1.033 2.3417382e-38
-0.16381906 0.089266673 1.0300001 2.3417354e-38
-0.16185716 0.089266673 1.0300001 2.3417359e-38
-0.15989526 0.089266673 1.0300001 2.3417365e-38
-0.15793335 0.089266673 1.0300001 2.3417382e-38
-0.15536572 0.088920005 1.026 2.34174e-38
-0.15400954 0.089266673 1.0300001 2.3417404e-38
-0.15204762 0.089266673 1.0300001 2.3417408e-38
-0.15008572 0.089266673 1.0300001 2.3417408e-38
-0.14812382 0.089266673 1.0300001 2.3417408e-38
-0.14616191 0.089266673 1.0300001 2.3417407e-38
-0.14420001 0.089266673 1.0300001 2.3417406e-38
-0.1422381 0.089266673 1.0300001 2.3417414e-38
-0.14027619 0.089266673 1.0300001 2.3417422e-38
-0.13831429 0.089266673 1.0300001 2.3417418e-38
-0.13439049 0.089266673 1.0300001 2.3417438e-38
-0.13242859 0.089266673 1.0300001 2.3417462e-38
-0.13084666 0.089526661 1.033 2.3417424e-38
-0.12887904 0.089526661 1.033 2.341631e-38
-0.12728 0.089786664 1.036 2.3415567e-38
-0.12530667 0.089786664 1.036 2.3308998e-38
-0.12333333 0.089786664 1.036 2.3307255e-38
-0.12136 0.089786664 1.036 2.3304437e-38
-0.18200475 0.091494285 1.033 2.3413866e-38
-0.18055999 0.091760002 1.036 2.3417383e-38
-0.17858668 0.091760002 1.036 2.3417396e-38
-0.17661333 0.091760002 1.036 2.3417408e-38
-0.17464 0.091760002 1.036 2.3417422e-38
-0.17216666 0.091494285 1.033 2.3417438e-38
-0.16970478 0.091228582 1.0300001 2.3417421e-38
-0.16774288 0.091228582 1.0300001 2.3417403e-38
-0.16578098 0.091228582 1.0300001 2.3417373e-38
-0.16318287 0.090874285 1.026 2.3417344e-38
-0.16122858 0.090874285 1.026 2.3417361e-38
-0.15927429 0.090874285 1.026 2.3417376e-38
-0.15732001 0.090874285 1.026 2.3417387e-38
-0.15536572 0.090874285 1.026 2.34174e-38
-0.15341143 0.090874285 1.026 2.3417408e-38
-0.15145715 0.090874285 1.026 2.3417417e-38
-0.14950286 0.090874285 1.026 2.341741e-38
-0.14754859 0.090874285 1.026 2.3417404e-38
-0.1455943 0.090874285 1.026 2.3417406e-38
-0.14364001 0.090874285 1.026 2.3417407e-38
-0.14168572 0.090874285 1.026 2.3417425e-38
-0.13973142 0.090874285 1.026 2.3417445e-38
-0.13777713 0.090874285 1.026 2.3417435e-38
-0.13582285 0.090874285 1.026 2.3417425e-38
-0.13439049 0.091228582 1.0300001 2.3417427e-38
-0.13242859 0.091228582 1.0300001 2.3417429e-38
-0.13046667 0.091228582 1.0300001 2.3417055e-38
-0.12887904 0.091494285 1.033 2.341381e-38
-0.12691143 0.091494285 1.033 2.3409474e-38
-0.1249438 0.091494285 1.033 2.330577e-38
-0.12297619 0.091494285 1.033 2.321326e-38
-0.12136 0.091760002 1.036 2.3304782e-38
-0.18055999 0.093733333 1.036 2.3415229e-38
-0.17858668 0.093733333 1.036 2.3417394e-38
-0.17661333 0.093733333 1.036 2.3417408e-38
-0.17464 0.093733333 1.036 2.3417434e-38
-0.17216666 0.093461908 1.033 2.3417459e-38
-0.16970478 0.093190484 1.0300001 2.3417427e-38
-0.16774288 0.093190484 1.0300001 2.3417396e-38
-0.16513714 0.092828572 1.026 2.3417365e-38
-0.16122858 0.092828572 1.026 2.3417362e-38
-0.15927429 0.092828572 1.026 2.3417389e-38
-0.15685999 0.09255714 1.023 2.3417394e-38
-0.15491143 0.09255714 1.023 2.34174e-38
-0.15296286 0.09255714 1.023 2.3417413e-38
-0.15145715 0.092828572 1.026 2.3417425e-38
-0.14950286 0.092828572 1.026 2.3417413e-38
-0.14754859 0.092828572 1.026 2.3417401e-38
-0.1455943 0.092828572 1.026 2.3417404e-38
-0.14364001 0.092828572 1.026 2.3417408e-38
-0.14168572 0.092828572 1.026 2.3417438e-38
-0.13973142 0.092828572 1.026 2.3417467e-38
-0.13737428 0.09255714 1.023 2.341745e-38
-0.13542572 0.09255714 1.023 2.3417435e-38
-0.12850477 0.093190484 1.0300001 2.3316247e-38
-0.12691143 0.093461908 1.033 2.3311546e-38
-0.1249438 0.093461908 1.033 2.330577e-38
-0.12297619 0.093461908 1.033 2.3304012e-38
-0.16709143 0.094782859 1.026 2.3417387e-38
-0.16513714 0.094782859 1.026 2.3417369e-38
-0.16318287 0.094782859 1.026 2.3417351e-38
-0.16122858 0.094782859 1.026 2.3417386e-38
-0.15880856 0.094505712 1.023 2.3417421e-38
-0.15685999 0.094505712 1.023 2.341741e-38
-0.15491143 0.094505712 1.023 2.34174e-38
-0.15296286 0.094505712 1.023 2.3417404e-38
-0.15101428 0.094505712 1.023 2.3417408e-38
-0.1490657 0.094505712 1.023 2.3417403e-38
-0.14711715 0.094505712 1.023 2.3417397e-38
-0.14516857 0.094505712 1.023 2.3417397e-38
-0.14280002 0.094228581 1.0200001 2.3417399e-38
-0.14127143 0.094505712 1.023 2.341741e-38
-0.13932286 0.094505712 1.023 2.3417422e-38
-0.13697143 0.094228581 1.0200001 2.3417406e-38
-0.13463144 0.093951434 1.0170001 2.3417389e-38
-0.13269429 0.093951434 1.0170001 2.3415225e-38
-0.12654287 0.095152393 1.0300001 2.3308299e-38
-0.1249438 0.095429517 1.033 2.330577e-38
-0.12297619 0.095429517 1.033 2.3397647e-38
-0.16075714 0.096454285 1.023 2.341741e-38
-0.15880856 0.096454285 1.023 2.3417453e-38
-0.15640001 0.096171439 1.0200001 2.3417427e-38
-0.15445717 0.096171439 1.0200001 2.3417401e-38
-0.15251429 0.096171439 1.0200001 2.3417397e-38
-0.15057145 0.096171439 1.0200001 2.3417393e-38
-0.1490657 0.096454285 1.023 2.3417393e-38
-0.14668573 0.096171439 1.0200001 2.3417393e-38
-0.14474286 0.096171439 1.0200001 2.341739e-38
-0.14238 0.095888577 1.0170001 2.3417389e-38
-0.14085715 0.096171439 1.0200001 2.3417383e-38
-0.1389143 0.096171439 1.0200001 2.3417379e-38
-0.13656859 0.095888577 1.0170001 2.3417361e-38
-0.13463144 0.095888577 1.0170001 2.3415191e-38
-0.13230287 0.095605724 1.0140001 2.3413394e-38
-0.13075715 0.095888577 1.0170001 2.3408008e-38
-0.12882002 0.095888577 1.0170001 2.3405856e-38
-0.12261906 0.097114295 1.0300001 2.3398372e-38
-0.17865716 0.097537152 1.0140001 2.2753756e-38
-0.15594001 0.097825721 1.0170001 2.3412361e-38
-0.15400288 0.097825721 1.0170001 2.3412704e-38
-0.15206572 0.097825721 1.0170001 2.3411268e-38
-0.14862858 0.098114297 1.0200001 2.340983e-38
-0.14431715 0.097825721 1.0170001 2.3410546e-38
-0.14238 0.097825721 1.0170001 2.3411981e-38
-0.14044286 0.097825721 1.0170001 2.340875e-38
-0.13850573 0.097825721 1.0170001 2.3405877e-38
-0.13616572 0.097537152 1.0140001 2.3407304e-38
-0.13423429 0.097537152 1.0140001 2.340873e-38
-0.13230287 0.097537152 1.0140001 2.3407292e-38
-0.13037144 0.097537152 1.0140001 2.3405856e-38
-0.12844001 0.097537152 1.0140001 2.3402269e-38
-0.12650858 0.097537152 1.0140001 2.3397605e-38
-0.12457716 0.097537152 1.0140001 2.3397964e-38
-0.12264571 0.097537152 1.0140001 2.3398681e-38
-0.12071429 0.097537152 1.0140001 2.3399449e-38
-0.18058857 0.099468581 1.0140001 2.3028968e-38
-0.17865716 0.099468581 1.0140001 2.3028541e-38
-0.17672573 0.099468581 1.0140001 2.3212143e-38
-0.1747943 0.099468581 1.0140001 2.3396172e-38
-0.16992 0.09888 1.008 2.340191e-38
-0.16800001 0.09888 1.008 2.3403345e-38
-0.16608 0.09888 1.008 2.3405139e-38
-0.16383429 0.098683812 1.006 2.331187e-38
-0.1619181 0.098683812 1.006 2.3310433e-38
-0.16000192 0.098683812 1.006 2.3309716e-38
-0.15808572 0.098683812 1.006 2.3309002e-38
-0.15616953 0.098683812 1.006 2.331116e-38
-0.15425333 0.098683812 1.006 2.3405501e-38
-0.15264 0.09888 1.008 2.3405139e-38
-0.15072 0.09888 1.008 2.340478e-38
-0.1488 0.09888 1.008 2.3406215e-38
-0.14539143 0.099174291 1.011 2.3407291e-38
-0.14346571 0.099174291 1.011 2.3406932e-38
-0.14154001 0.099174291 1.011 2.3405856e-38
-0.13961428 0.099174291 1.011 2.3405139e-38
-0.13809715 0.099468581 1.0140001 2.3406215e-38
-0.13616572 0.099468581 1.0140001 2.3407291e-38
-0.13423429 0.099468581 1.0140001 2.3405497e-38
-0.13230287 0.099468581 1.0140001 2.3404062e-38
-0.13037144 0.099468581 1.0140001 2.3401192e-38
-0.12844001 0.099468581 1.0140001 2.3398681e-38
-0.12650858 0.099468581 1.0140001 2.3398681e-38
-0.12457716 0.099468581 1.0140001 2.3398681e-38
-0.12264571 0.099468581 1.0140001 2.3399399e-38
-0.12071429 0.099468581 1.0140001 2.3400527e-38
-0.11878286 0.099468581 1.0140001 2.330444e-38
-0.18058857 0.10140001 1.0140001 2.3028618e-38
-0.17865716 0.10140001 1.0140001 2.3396605e-38
-0.17672573 0.10140001 1.0140001 2.3397248e-38
-0.17427716 0.10110001 1.011 2.3397246e-38
-0.17184001 0.1008 1.008 2.3397605e-38
-0.16992 0.1008 1.008 2.3398323e-38
-0.16800001 0.1008 1.008 2.3399399e-38
-0.16575049 0.1006 1.006 2.339904e-38
-0.16383429 0.1006 1.006 2.3306846e-38
-0.1619181 0.1006 1.006 2.3307922e-38
-0.16000192 0.1006 1.006 2.3308998e-38
-0.15808572 0.1006 1.006 2.3308641e-38
-0.15616953 0.1006 1.006 2.3308644e-38
-0.15425333 0.1006 1.006 2.3401553e-38
-0.15233715 0.1006 1.006 2.3402986e-38
-0.15042095 0.1006 1.006 2.340191e-38
-0.14850476 0.1006 1.006 2.3400834e-38
-0.14688 0.1008 1.008 2.3401551e-38
-0.14496 0.1008 1.008 2.3402269e-38
-0.14304 0.1008 1.008 2.3402269e-38
-0.14111999 0.1008 1.008 2.3402627e-38
-0.1392 0.1008 1.008 2.3402627e-38
-0.13728 0.1008 1.008 2.3402627e-38
-0.13576287 0.10110001 1.011 2.3402627e-38
-0.13383715 0.10110001 1.011 2.3402986e-38
-0.13191143 0.10110001 1.011 2.3401551e-38
-0.12998572 0.10110001 1.011 2.3399399e-38
-0.12844001 0.10140001 1.0140001 2.3399399e-38
-0.12650858 0.10140001 1.0140001 2.33994e-38
-0.12457716 0.10140001 1.0140001 2.3400126e-38
-0.12300858 0.10170001 1.0170001 2.3396188e-38
-0.12107144 0.10170001 1.0170001 2.3396944e-38
-0.18058857 0.10333144 1.0140001 2.2939304e-38
-0.17865716 0.10333144 1.0140001 2.3399837e-38
-0.17620285 0.10302571 1.011 2.3400476e-38
-0.17376 0.10272 1.008 2.3401551e-38
-0.17184001 0.10272 1.008 2.3399758e-38
-0.16992 0.10272 1.008 2.3398323e-38
-0.16766667 0.1025162 1.006 2.3398681e-38
-0.16575049 0.1025162 1.006 2.339904e-38
-0.16383429 0.1025162 1.006 2.3307563e-38
-0.1619181 0.1025162 1.006 2.3307922e-38
-0.16000192 0.1025162 1.006 2.330864e-38
-0.15808572 0.1025162 1.006 2.330864e-38
-0.15616953 0.1025162 1.006 2.330864e-38
-0.15425333 0.1025162 1.006 2.3400116e-38
-0.15233715 0.1025162 1.006 2.3400116e-38
-0.15042095 0.1025162 1.006 2.3400116e-38
-0.14850476 0.1025162 1.006 2.3400116e-38
-0.14658856 0.1025162 1.006 2.340191e-38
-0.14467238 0.1025162 1.006 2.340191e-38
-0.14304 0.10272 1.008 2.340191e-38
-0.14111999 0.10272 1.008 2.3401551e-38
-0.1392 0.10272 1.008 2.3401192e-38
-0.13728 0.10272 1.008 2.3402627e-38
-0.13576287 0.10302571 1.011 2.3402986e-38
-0.13383715 0.10302571 1.011 2.3403704e-38
-0.13191143 0.10302571 1.011 2.3400475e-38
-0.13037144 0.10333144 1.0140001 2.3402269e-38
-0.12844001 0.10333144 1.0140001 2.3404064e-38
-0.12688287 0.10363715 1.0170001 2.340263e-38
-0.12494572 0.10363715 1.0170001 2.3401571e-38
-0.12337144 0.10394286 1.0200001 2.3395849e-38
-0.12178572 0.10424857 1.023 2.3395872e-38
-0.18058857 0.10526286 1.0140001 2.2939673e-38
-0.17865716 0.10526286 1.0140001 2.3398407e-38
-0.17620285 0.10495143 1.011 2.3403345e-38
-0.17427716 0.10495143 1.011 2.3403349e-38
-0.17184001 0.10464 1.008 2.3403353e-38
-0.16992 0.10464 1.008 2.3401914e-38
-0.16766667 0.10443239 1.006 2.3400834e-38
-0.16575049 0.10443239 1.006 2.339904e-38
-0.16383429 0.10443239 1.006 2.3399758e-38
-0.1619181 0.10443239 1.006 2.3400116e-38
-0.16000192 0.10443239 1.006 2.3400475e-38
-0.15808572 0.10443239 1.006 2.3400475e-38
-0.15616953 0.10443239 1.006 2.3400475e-38
-0.15425333 0.10443239 1.006 2.3399399e-38
-0.15233715 0.10443239 1.006 2.3395812e-38
-0.15042095 0.10443239 1.006 2.3399758e-38
-0.14850476 0.10443239 1.006 2.3399399e-38
-0.14658856 0.10443239 1.006 2.3402986e-38
-0.14467238 0.10443239 1.006 2.3402269e-38
-0.14275619 0.10443239 1.006 2.3402986e-38
-0.14084001 0.10443239 1.006 2.3404062e-38
-0.13892382 0.10443239 1.006 2.3403345e-38
-0.13728 0.10464 1.008 2.3402627e-38
-0.13576287 0.10495143 1.011 2.3403704e-38
-0.13383715 0.10495143 1.011 2.3404781e-38
-0.13230287 0.10526286 1.0140001 2.3405143e-38
-0.13037144 0.10526286 1.0140001 2.3405504e-38
-0.12844001 0.10526286 1.0140001 2.3404784e-38
-0.12688287 0.10557429 1.0170001 2.3402988e-38
-0.1253143 0.10588572 1.0200001 2.3399767e-38
-0.12337144 0.10588572 1.0200001 2.3395472e-38
-0.12178572 0.10619715 1.023 2.3394791e-38
-0.11983714 0.10619715 1.023 2.3118963e-38
-0.18058857 0.10719429 1.0140001 2.293825e-38
-0.17812857 0.10687714 1.011 2.3305142e-38
-0.17620285 0.10687714 1.011 2.3307922e-38
-0.17376 0.10656 1.008 2.3311159e-38
-0.17184001 0.10656 1.008 2.3312963e-38
-0.16958287 0.10634858 1.006 2.3406583e-38
-0.16766667 0.10634858 1.006 2.3398683e-38
-0.16575049 0.10634858 1.006 2.3399042e-38
-0.16383429 0.10634858 1.006 2.3400118e-38
-0.1619181 0.10634858 1.006 2.3401551e-38
-0.16000192 0.10634858 1.006 2.3401551e-38
-0.1584 0.10656 1.008 2.340191e-38
-0.15616953 0.10634858 1.006 2.3401551e-38
-0.15425333 0.10634858 1.006 2.339904e-38
-0.15233715 0.10634858 1.006 2.3399399e-38
-0.15042095 0.10634858 1.006 2.3399758e-38
-0.14850476 0.10634858 1.006 2.340191e-38
-0.14658856 0.10634858 1.006 2.3404062e-38
-0.14467238 0.10634858 1.006 2.3403705e-38
-0.14275619 0.10634858 1.006 2.3403704e-38
-0.14084001 0.10634858 1.006 2.3404062e-38
-0.13892382 0.10634858 1.006 2.3404421e-38
-0.13728 0.10656 1.008 2.3405497e-38
-0.13536 0.10656 1.008 2.3406934e-38
-0.13383715 0.10687714 1.011 2.3406576e-38
-0.13230287 0.10719429 1.0140001 2.3406582e-38
-0.13037144 0.10719429 1.0140001 2.3405871e-38
-0.12844001 0.10719429 1.0140001 2.3405504e-38
-0.12725715 0.10782858 1.0200001 2.3400834e-38
-0.1253143 0.10782858 1.0200001 2.3398323e-38
-0.12373429 0.10814571 1.023 2.3399042e-38
-0.12214286 0.10846286 1.026 2.3399809e-38
-0.18058857 0.10912572 1.0140001 2.3030084e-38
-0.17812857 0.10880286 1.011 2.321224e-38
-0.17620285 0.10880286 1.011 2.3210008e-38
-0.17376 0.10848 1.008 2.3211796e-38
-0.17184001 0.10848 1.008 2.3305778e-38
-0.16958287 0.10826476 1.006 2.3396892e-38
-0.16766667 0.10826476 1.006 2.3396529e-38
-0.16575049 0.10826476 1.006 2.3398681e-38
-0.16383429 0.10826476 1.006 2.3402627e-38
-0.16224 0.10848 1.008 2.3402269e-38
-0.16032 0.10848 1.008 2.3405499e-38
-0.1584 0.10848 1.008 2.3402627e-38
-0.15648 0.10848 1.008 2.3402627e-38
-0.15456001 0.10848 1.008 2.3403704e-38
-0.15233715 0.10826476 1.006 2.3404781e-38
-0.15042095 0.10826476 1.006 2.3404787e-38
-0.1480619 0.10794191 1.003 2.3405151e-38
-0.14658856 0.10826476 1.006 2.3405146e-38
-0.14424096 0.10794191 1.003 2.340514e-38
-0.14275619 0.10826476 1.006 2.340479e-38
-0.14084001 0.10826476 1.006 2.3404798e-38
-0.13892382 0.10826476 1.006 2.3404431e-38
-0.13728 0.10848 1.008 2.3405856e-38
-0.13536 0.10848 1.008 2.3406573e-38
-0.13383715 0.10880286 1.011 2.3402988e-38
-0.13230287 0.10912572 1.0140001 2.3401914e-38
-0.13037144 0.10912572 1.0140001 2.3400841e-38
-0.12882002 0.10944857 1.0170001 2.3402271e-38
-0.12725715 0.10977144 1.0200001 2.339904e-38
-0.1253143 0.10977144 1.0200001 2.339904e-38
-0.12373429 0.11009429 1.023 2.3399758e-38
-0.12214286 0.11041714 1.026 2.3398002e-38
-0.17865716 0.11105715 1.0140001 2.3119697e-38
-0.17672573 0.11105715 1.0140001 2.321218e-38
-0.17376 0.1104 1.008 2.3305072e-38
-0.17184001 0.1104 1.008 2.3305052e-38
-0.16992 0.1104 1.008 2.3396888e-38
-0.16800001 0.1104 1.008 2.3397605e-38
-0.16608 0.1104 1.008 2.3398323e-38
-0.16416 0.1104 1.008 2.3400834e-38
-0.16224 0.1104 1.008 2.3403346e-38
-0.16032 0.1104 1.008 2.3311512e-38
-0.15887143 0.11072858 1.011 2.331187e-38
-0.15648 0.1104 1.008 2.3312946e-38
-0.15456001 0.1104 1.008 2.3405857e-38
-0.15233715 0.11018095 1.006 2.34055e-38
-0.15042095 0.11018095 1.006 2.3405153e-38
-0.14850476 0.11018095 1.006 2.3405881e-38
-0.14658856 0.11018095 1.006 2.3406587e-38
-0.14467238 0.11018095 1.006 2.3405859e-38
-0.14275619 0.11018095 1.006 2.3405517e-38
-0.14084001 0.11018095 1.006 2.3405176e-38
-0.13892382 0.11018095 1.006 2.3404799e-38
-0.13728 0.1104 1.008 2.340514e-38
-0.13576287 0.11072858 1.011 2.3406573e-38
-0.13383715 0.11072858 1.011 2.3403345e-38
-0.13230287 0.11105715 1.0140001 2.3403345e-38
-0.13037144 0.11105715 1.0140001 2.3403345e-38
-0.12882002 0.11138573 1.0170001 2.3403704e-38
-0.12725715 0.1117143 1.0200001 2.3401192e-38
-0.12568285 0.11204285 1.023 2.339904e-38
-0.12409715 0.11237143 1.026 2.3399399e-38
-0.12214286 0.11237143 1.026 2.3395477e-38
-0.12018858 0.11237143 1.026 2.3119995e-38
-0.17918573 0.11332286 1.0170001 2.3123281e-38
-0.17672573 0.11298858 1.0140001 2.3213959e-38
-0.17235143 0.11265428 1.011 2.3397246e-38
-0.16992 0.11232001 1.008 2.3398323e-38
-0.16800001 0.11232001 1.008 2.3399399e-38
-0.16608 0.11232001 1.008 2.339904e-38
-0.16416 0.11232001 1.008 2.3399042e-38
-0.16224 0.11232001 1.008 2.3399042e-38
-0.16032 0.11232001 1.008 2.3307206e-38
-0.15887143 0.11265428 1.011 2.3307563e-38
-0.15648 0.11232001 1.008 2.3307922e-38
-0.15456001 0.11232001 1.008 2.3399758e-38
-0.15264 0.11232001 1.008 2.3400118e-38
-0.15072 0.11232001 1.008 2.3400841e-38
-0.14850476 0.11209714 1.006 2.3401564e-38
-0.14658856 0.11209714 1.006 2.3401558e-38
-0.14467238 0.11209714 1.006 2.3401553e-38
-0.14275619 0.11209714 1.006 2.3400844e-38
-0.14111999 0.11232001 1.008 2.3400493e-38
-0.1392 0.11232001 1.008 2.340479e-38
-0.13768856 0.11265428 1.011 2.340478e-38
-0.13576287 0.11265428 1.011 2.3404062e-38
-0.13383715 0.11265428 1.011 2.3403704e-38
-0.13230287 0.11298858 1.0140001 2.3403704e-38
-0.13037144 0.11298858 1.0140001 2.3404062e-38
-0.12882002 0.11332286 1.0170001 2.3403704e-38
-0.12725715 0.11365715 1.0200001 2.3403346e-38
-0.1253143 0.11365715 1.0200001 2.3400482e-38
-0.12373429 0.11399143 1.023 2.3399054e-38
-0.12178572 0.11399143 1.023 2.3396571e-38
-0.11983714 0.11399143 1.023 2.3395524e-38
-0.18165717 0.11560001 1.0200001 2.3215925e-38
-0.17918573 0.11526 1.0170001 2.3215115e-38
-0.17724858 0.11526 1.0170001 2.3305782e-38
-0.1747943 0.11492001 1.0140001 2.3397252e-38
-0.17286287 0.11492001 1.0140001 2.3397605e-38
-0.17042571 0.11458001 1.011 2.3400475e-38
-0.16850001 0.11458001 1.011 2.3400116e-38
-0.16608 0.11424001 1.008 2.3399759e-38
-0.16416 0.11424001 1.008 2.3400119e-38
-0.16272287 0.11458001 1.011 2.3400476e-38
-0.16079715 0.11458001 1.011 2.330864e-38
-0.15887143 0.11458001 1.011 2.3308998e-38
-0.15694571 0.11458001 1.011 2.3309357e-38
-0.15502001 0.11458001 1.011 2.3404421e-38
-0.15264 0.11424001 1.008 2.3401551e-38
-0.15072 0.11424001 1.008 2.3400116e-38
-0.1488 0.11424001 1.008 2.3402269e-38
-0.14658856 0.11401334 1.006 2.3402269e-38
-0.14467238 0.11401334 1.006 2.3401551e-38
-0.14275619 0.11401334 1.006 2.3401192e-38
-0.14111999 0.11424001 1.008 2.3402986e-38
-0.1392 0.11424001 1.008 2.340478e-38
-0.13768856 0.11458001 1.011 2.340478e-38
-0.13616572 0.11492001 1.0140001 2.3404062e-38
-0.13423429 0.11492001 1.0140001 2.3404421e-38
-0.13230287 0.11492001 1.0140001 2.3405139e-38
-0.13037144 0.11492001 1.0140001 2.3404064e-38
-0.12882002 0.11526 1.0170001 2.3403705e-38
-0.12725715 0.11560001 1.0200001 2.3402989e-38
-0.1253143 0.11560001 1.0200001 2.3402284e-38
-0.12373429 0.11594 1.023 2.3397992e-38
-0.12178572 0.11594 1.023 2.3397665e-38
-0.11983714 0.11594 1.023 2.3395905e-38
-0.18219142 0.11788857 1.023 2.3399247e-38
-0.17971429 0.11754287 1.0200001 2.3398436e-38
-0.17777145 0.11754287 1.0200001 2.3397984e-38
-0.17531143 0.11719715 1.0170001 2.3397256e-38
-0.17286287 0.11685143 1.0140001 2.3398323e-38
-0.17042571 0.11650571 1.011 2.3400475e-38
-0.16850001 0.11650571 1.011 2.3400475e-38
-0.16657428 0.11650571 1.011 2.3400475e-38
-0.16464858 0.11650571 1.011 2.3400835e-38
-0.16272287 0.11650571 1.011 2.3400834e-38
-0.16079715 0.11650571 1.011 2.340191e-38
-0.15887143 0.11650571 1.011 2.340191e-38
-0.15694571 0.11650571 1.011 2.3402986e-38
-0.15502001 0.11650571 1.011 2.3402986e-38
-0.15264 0.11616 1.008 2.3403345e-38
-0.15116857 0.11650571 1.011 2.3402986e-38
-0.1488 0.11616 1.008 2.3402986e-38
-0.14688 0.11616 1.008 2.3402986e-38
-0.14467238 0.11592953 1.006 2.3402986e-38
-0.14304 0.11616 1.008 2.3404062e-38
-0.14111999 0.11616 1.008 2.340514e-38
-0.13961428 0.11650571 1.011 2.340478e-38
-0.13768856 0.11650571 1.011 2.340478e-38
-0.13576287 0.11650571 1.011 2.340478e-38
-0.13423429 0.11685143 1.0140001 2.340478e-38
-0.13230287 0.11685143 1.0140001 2.3404421e-38
-0.13037144 0.11685143 1.0140001 2.3404421e-38
-0.12882002 0.11719715 1.0170001 2.3403346e-38
-0.12725715 0.11754287 1.0200001 2.3402989e-38
-0.1253143 0.11754287 1.0200001 2.3402284e-38
-0.12373429 0.11788857 1.023 2.3397276e-38
-0.12178572 0.11788857 1.023 2.3397305e-38
-0.11983714 0.11788857 1.023 2.3394105e-38
-0.18468 0.12018858 1.026 2.3218451e-38
-0.18272571 0.12018858 1.026 2.321487e-38
-0.18024287 0.11983714 1.023 2.321334e-38
-0.17829429 0.11983714 1.023 2.3305439e-38
-0.17582859 0.11948573 1.0200001 2.339726e-38
-0.17093144 0.11878286 1.0140001 2.3400834e-38
-0.16900001 0.11878286 1.0140001 2.3400834e-38
-0.16657428 0.11843143 1.011 2.3400834e-38
-0.16464858 0.11843143 1.011 2.3400834e-38
-0.16272287 0.11843143 1.011 2.3401192e-38
-0.16079715 0.11843143 1.011 2.340191e-38
-0.15887143 0.11843143 1.011 2.340191e-38
-0.15694571 0.11843143 1.011 2.340191e-38
-0.15502001 0.11843143 1.011 2.340191e-38
-0.15309429 0.11843143 1.011 2.3402627e-38
-0.15116857 0.11843143 1.011 2.3403704e-38
-0.1488 0.11808 1.008 2.3402986e-38
-0.14688 0.11808 1.008 2.340478e-38
-0.14496 0.11808 1.008 2.3404421e-38
-0.14304 0.11808 1.008 2.3404064e-38
-0.14111999 0.11808 1.008 2.3404783e-38
-0.13961428 0.11843143 1.011 2.3404781e-38
-0.13809715 0.11878286 1.0140001 2.3404062e-38
-0.13616572 0.11878286 1.0140001 2.3406215e-38
-0.13423429 0.11878286 1.0140001 2.3404781e-38
-0.13269429 0.11913429 1.0170001 2.3403345e-38
-0.13075715 0.11913429 1.0170001 2.3402986e-38
-0.12882002 0.11913429 1.0170001 2.3402988e-38
-0.1253143 0.11948573 1.0200001 2.3402644e-38
-0.12373429 0.11983714 1.023 2.339692e-38
-0.12178572 0.11983714 1.023 2.3396944e-38
-0.18468 0.12214286 1.026 2.3030457e-38
-0.18272571 0.12214286 1.026 2.3030458e-38
-0.18024287 0.12178572 1.023 2.3030389e-38
-0.17829429 0.12178572 1.023 2.3213993e-38
-0.17634571 0.12178572 1.023 2.3397276e-38
-0.17388573 0.12142859 1.0200001 2.3397607e-38
-0.17143716 0.12107144 1.0170001 2.3400835e-38
-0.16900001 0.12071429 1.0140001 2.3399399e-38
-0.16706859 0.12071429 1.0140001 2.340191e-38
-0.16513716 0.12071429 1.0140001 2.340227e-38
-0.16320573 0.12071429 1.0140001 2.340191e-38
-0.16079715 0.12035715 1.011 2.340191e-38
-0.15934287 0.12071429 1.0140001 2.340191e-38
-0.15694571 0.12035715 1.011 2.340191e-38
-0.15502001 0.12035715 1.011 2.340191e-38
-0.15309429 0.12035715 1.011 2.3400834e-38
-0.15116857 0.12035715 1.011 2.3402986e-38
-0.14924286 0.12035715 1.011 2.3403345e-38
-0.14731714 0.12035715 1.011 2.3404421e-38
-0.14539143 0.12035715 1.011 2.3404421e-38
-0.14346571 0.12035715 1.011 2.3404421e-38
-0.14154001 0.12035715 1.011 2.3404781e-38
-0.14002858 0.12071429 1.0140001 2.3404062e-38
-0.13809715 0.12071429 1.0140001 2.3403704e-38
-0.13616572 0.12071429 1.0140001 2.3406575e-38
-0.13423429 0.12071429 1.0140001 2.3405143e-38
-0.13269429 0.12107144 1.0170001 2.3403346e-38
-0.13075715 0.12107144 1.0170001 2.3403704e-38
-0.12920001 0.12142859 1.0200001 2.3403345e-38
-0.12725715 0.12142859 1.0200001 2.3402988e-38
-0.1253143 0.12142859 1.0200001 2.3401204e-38
-0.12337144 0.12142859 1.0200001 2.3396909e-38
-0.12142859 0.12142859 1.0200001 2.3397297e-38
-0.18468 0.12409715 1.026 2.2847485e-38
-0.18077143 0.12409715 1.026 2.2663052e-38
-0.17881715 0.12409715 1.026 2.3029994e-38
-0.17634571 0.12373429 1.023 2.3397293e-38
-0.17388573 0.12337144 1.0200001 2.3397609e-38
-0.17143716 0.12300858 1.0170001 2.3401195e-38
-0.16950002 0.12300858 1.0170001 2.3399759e-38
-0.16706859 0.12264571 1.0140001 2.3403346e-38
-0.16513716 0.12264571 1.0140001 2.340263e-38
-0.16320573 0.12264571 1.0140001 2.340227e-38
-0.1612743 0.12264571 1.0140001 2.340191e-38
-0.15934287 0.12264571 1.0140001 2.340191e-38
-0.15741144 0.12264571 1.0140001 2.3402269e-38
-0.15548001 0.12264571 1.0140001 2.3402986e-38
-0.15354858 0.12264571 1.0140001 2.3402627e-38
-0.15161715 0.12264571 1.0140001 2.3402269e-38
-0.14968573 0.12264571 1.0140001 2.3403345e-38
-0.1477543 0.12264571 1.0140001 2.3405856e-38
-0.14582287 0.12264571 1.0140001 2.3404064e-38
-0.14389144 0.12264571 1.0140001 2.3403345e-38
-0.14196001 0.12264571 1.0140001 2.3403345e-38
-0.14002858 0.12264571 1.0140001 2.3403345e-38
-0.13809715 0.12264571 1.0140001 2.3403704e-38
-0.13656859 0.12300858 1.0170001 2.3406936e-38
-0.13423429 0.12264571 1.0140001 2.3405506e-38
-0.13269429 0.12300858 1.0170001 2.3403349e-38
-0.13075715 0.12300858 1.0170001 2.3403345e-38
-0.12882002 0.12300858 1.0170001 2.340478e-38
-0.12725715 0.12337144 1.0200001 2.3401911e-38
-0.1253143 0.12337144 1.0200001 2.3399763e-38
-0.12337144 0.12337144 1.0200001 2.3396899e-38
-0.12142859 0.12337144 1.0200001 2.339801e-38
-0.18468 0.12605143 1.026 2.2753138e-38
-0.18077143 0.12605143 1.026 2.2293201e-38
-0.17881715 0.12605143 1.026 2.2843823e-38
-0.17686287 0.12605143 1.026 2.3397297e-38
-0.17388573 0.1253143 1.0200001 2.3397965e-38
-0.17194287 0.1253143 1.0200001 2.3400118e-38
-0.16950002 0.12494572 1.0170001 2.3400476e-38
-0.16706859 0.12457716 1.0140001 2.340227e-38
-0.16513716 0.12457716 1.0140001 2.3402988e-38
-0.16320573 0.12457716 1.0140001 2.3401551e-38
-0.1612743 0.12457716 1.0140001 2.3400834e-38
-0.15934287 0.12457716 1.0140001 2.3402627e-38
-0.15741144 0.12457716 1.0140001 2.3402627e-38
-0.15548001 0.12457716 1.0140001 2.3402627e-38
-0.15354858 0.12457716 1.0140001 2.3402986e-38
-0.15161715 0.12457716 1.0140001 2.3402627e-38
-0.14968573 0.12457716 1.0140001 2.3403345e-38
-0.1477543 0.12457716 1.0140001 2.3403345e-38
-0.14582287 0.12457716 1.0140001 2.3403704e-38
-0.14389144 0.12457716 1.0140001 2.3402986e-38
-0.14196001 0.12457716 1.0140001 2.3402986e-38
-0.14002858 0.12457716 1.0140001 2.3403345e-38
-0.13850573 0.12494572 1.0170001 2.3403704e-38
-0.13656859 0.12494572 1.0170001 2.340514e-38
-0.13463144 0.12494572 1.0170001 2.340586e-38
-0.13269429 0.12494572 1.0170001 2.3404065e-38
-0.13075715 0.12494572 1.0170001 2.3402988e-38
-0.12763143 0.12568285 1.023 2.3400846e-38
-0.12568285 0.12568285 1.023 2.3400125e-38
-0.12373429 0.12568285 1.023 2.3397252e-38
-0.18468 0.12800571 1.026 2.2569108e-38
-0.18272571 0.12800571 1.026 2.2201035e-38
-0.18077143 0.12800571 1.026 2.1833309e-38
-0.17881715 0.12800571 1.026 2.2569045e-38
-0.17686287 0.12800571 1.026 2.3305467e-38
-0.17194287 0.12725715 1.0200001 2.3399399e-38
-0.16950002 0.12688287 1.0170001 2.3400476e-38
-0.16756286 0.12688287 1.0170001 2.3401194e-38
-0.16513716 0.12650858 1.0140001 2.3401194e-38
-0.16320573 0.12650858 1.0140001 2.3401192e-38
-0.1612743 0.12650858 1.0140001 2.3400834e-38
-0.15934287 0.12650858 1.0140001 2.3403345e-38
-0.15741144 0.12650858 1.0140001 2.3402629e-38
-0.15548001 0.12650858 1.0140001 2.3402269e-38
-0.15354858 0.12650858 1.0140001 2.3402269e-38
-0.15161715 0.12650858 1.0140001 2.3402627e-38
-0.14968573 0.12650858 1.0140001 2.3402627e-38
-0.1477543 0.12650858 1.0140001 2.3402986e-38
-0.14582287 0.12650858 1.0140001 2.3402986e-38
-0.14389144 0.12650858 1.0140001 2.3402986e-38
-0.14196001 0.12650858 1.0140001 2.3402986e-38
-0.14002858 0.12650858 1.0140001 2.3403345e-38
-0.13850573 0.12688287 1.0170001 2.3403345e-38
-0.13656859 0.12688287 1.0170001 2.340478e-38
-0.13463144 0.12688287 1.0170001 2.3404781e-38
-0.13308573 0.12725715 1.0200001 2.340514e-38
-0.13114287 0.12725715 1.0200001 2.3401913e-38
-0.12996 0.12800571 1.026 2.3401924e-38
-0.12800571 0.12800571 1.026 2.3400859e-38
-0.12605143 0.12800571 1.026 2.3400488e-38
-0.12409715 0.12800571 1.026 2.3397246e-38
-0.18343811 0.13046667 1.0300001 2.1831192e-38
-0.18147621 0.13046667 1.0300001 2.1374499e-38
-0.17881715 0.12996 1.026 2.2294262e-38
-0.17686287 0.12996 1.026 2.3213994e-38
-0.17439714 0.12958001 1.023 2.3306491e-38
-0.17194287 0.12920001 1.0200001 2.3400119e-38
-0.16950002 0.12882002 1.0170001 2.3400475e-38
-0.16756286 0.12882002 1.0170001 2.3400475e-38
-0.16562572 0.12882002 1.0170001 2.3400475e-38
-0.16320573 0.12844001 1.0140001 2.3400834e-38
-0.1612743 0.12844001 1.0140001 2.3401192e-38
-0.15934287 0.12844001 1.0140001 2.3402627e-38
-0.15741144 0.12844001 1.0140001 2.3402986e-38
-0.15548001 0.12844001 1.0140001 2.340191e-38
-0.15354858 0.12844001 1.0140001 2.3402269e-38
-0.15161715 0.12844001 1.0140001 2.3402269e-38
-0.14968573 0.12844001 1.0140001 2.3402627e-38
-0.1477543 0.12844001 1.0140001 2.3402627e-38
-0.14582287 0.12844001 1.0140001 2.3402986e-38
-0.14389144 0.12844001 1.0140001 2.3403345e-38
-0.14196001 0.12844001 1.0140001 2.3404064e-38
-0.14002858 0.12844001 1.0140001 2.3402988e-38
-0.13850573 0.12882002 1.0170001 2.3403346e-38
-0.13656859 0.12882002 1.0170001 2.3402269e-38
-0.13463144 0.12882002 1.0170001 2.3401551e-38
-0.13308573 0.12920001 1.0200001 2.3401194e-38
-0.13152857 0.12958001 1.023 2.3401194e-38
-0.12996 0.12996 1.026 2.3400841e-38
-0.12800571 0.12996 1.026 2.3400846e-38
-0.12654287 0.13046667 1.0300001 2.339905e-38
-0.12458096 0.13046667 1.0300001 2.3397611e-38
-0.12261906 0.13046667 1.0300001 2.3397996e-38
-0.12065715 0.13046667 1.0300001 2.3398739e-38
-0.18343811 0.13242859 1.0300001 2.2111013e-38
-0.18147621 0.13242859 1.0300001 2.1834042e-38
-0.17881715 0.13191429 1.026 2.2386462e-38
-0.17686287 0.13191429 1.026 2.3030688e-38
-0.17439714 0.13152857 1.023 2.3213585e-38
-0.17244858 0.13152857 1.023 2.3400838e-38
-0.17000002 0.13114287 1.0200001 2.3399758e-38
-0.16756286 0.13075715 1.0170001 2.3399399e-38
-0.16562572 0.13075715 1.0170001 2.3400475e-38
-0.16368859 0.13075715 1.0170001 2.3400475e-38
-0.16175145 0.13075715 1.0170001 2.3401192e-38
-0.1598143 0.13075715 1.0170001 2.340191e-38
-0.15741144 0.13037144 1.0140001 2.340191e-38
-0.15594001 0.13075715 1.0170001 2.340191e-38
-0.15354858 0.13037144 1.0140001 2.340191e-38
-0.15161715 0.13037144 1.0140001 2.340191e-38
-0.14968573 0.13037144 1.0140001 2.340227e-38
-0.1477543 0.13037144 1.0140001 2.3402629e-38
-0.14582287 0.13037144 1.0140001 2.340227e-38
-0.14389144 0.13037144 1.0140001 2.3401194e-38
-0.14196001 0.13037144 1.0140001 2.3401913e-38
-0.14044286 0.13075715 1.0170001 2.3402989e-38
-0.13850573 0.13075715 1.0170001 2.3401913e-38
-0.13656859 0.13075715 1.0170001 2.3401194e-38
-0.13502859 0.13114287 1.0200001 2.3308281e-38
-0.13347714 0.13152857 1.023 2.3307563e-38
-0.13152857 0.13152857 1.023 2.3308282e-38
-0.12996 0.13191429 1.026 2.3400835e-38
-0.12850477 0.13242859 1.0300001 2.33994e-38
-0.12654287 0.13242859 1.0300001 2.3397971e-38
-0.12458096 0.13242859 1.0300001 2.3397977e-38
-0.12261906 0.13242859 1.0300001 2.339836e-38
-0.12065715 0.13242859 1.0300001 2.3398746e-38
-0.18540001 0.13439049 1.0300001 2.2477646e-38
-0.18343811 0.13439049 1.0300001 2.238544e-38
-0.18147621 0.13439049 1.0300001 2.2385774e-38
-0.17881715 0.13386856 1.026 2.2570497e-38
-0.17686287 0.13386856 1.026 2.2845587e-38
-0.17439714 0.13347714 1.023 2.3121037e-38
-0.17244858 0.13347714 1.023 2.3399765e-38
-0.17000002 0.13308573 1.0200001 2.3399399e-38
-0.16756286 0.13269429 1.0170001 2.3399758e-38
-0.16562572 0.13269429 1.0170001 2.3400475e-38
-0.16368859 0.13269429 1.0170001 2.3400116e-38
-0.16175145 0.13269429 1.0170001 2.3401192e-38
-0.1598143 0.13269429 1.0170001 2.3401551e-38
-0.15787715 0.13269429 1.0170001 2.3401911e-38
-0.15594001 0.13269429 1.0170001 2.340191e-38
-0.15400288 0.13269429 1.0170001 2.3402269e-38
-0.15206572 0.13269429 1.0170001 2.3402269e-38
-0.14968573 0.13230287 1.0140001 2.3402269e-38
-0.14819144 0.13269429 1.0170001 2.340191e-38
-0.1462543 0.13269429 1.0170001 2.3401911e-38
-0.14431715 0.13269429 1.0170001 2.3400835e-38
-0.14238 0.13269429 1.0170001 2.3401194e-38
-0.14044286 0.13269429 1.0170001 2.33994e-38
-0.13850573 0.13269429 1.0170001 2.3397607e-38
-0.13656859 0.13269429 1.0170001 2.3395094e-38
-0.13502859 0.13308573 1.0200001 2.3300747e-38
-0.13347714 0.13347714 1.023 2.3306487e-38
-0.13152857 0.13347714 1.023 2.3304693e-38
-0.12996 0.13386856 1.026 2.3396888e-38
-0.12850477 0.13439049 1.0300001 2.3397605e-38
-0.12654287 0.13439049 1.0300001 2.3397608e-38
-0.12458096 0.13439049 1.0300001 2.339833e-38
-0.12261906 0.13439049 1.0300001 2.3397283e-38
-0.12065715 0.13439049 1.0300001 2.3394801e-38
-0.11869525 0.13439049 1.0300001 2.3393387e-38
-0.18343811 0.13635239 1.0300001 2.2386155e-38
-0.18147621 0.13635239 1.0300001 2.247833e-38
-0.17881715 0.13582285 1.026 2.2661622e-38
-0.17686287 0.13582285 1.026 2.2844876e-38
-0.17439714 0.13542572 1.023 2.3122118e-38
-0.17244858 0.13542572 1.023 2.3398691e-38
-0.17000002 0.13502859 1.0200001 2.33994e-38
-0.16805716 0.13502859 1.0200001 2.3400475e-38
-0.16562572 0.13463144 1.0170001 2.3400116e-38
-0.16368859 0.13463144 1.0170001 2.3400116e-38
-0.16175145 0.13463144 1.0170001 2.3400834e-38
-0.1598143 0.13463144 1.0170001 2.3401553e-38
-0.15787715 0.13463144 1.0170001 2.3402271e-38
-0.15594001 0.13463144 1.0170001 2.3402629e-38
-0.15400288 0.13463144 1.0170001 2.3402269e-38
-0.15206572 0.13463144 1.0170001 2.3401551e-38
-0.15012857 0.13463144 1.0170001 2.3401192e-38
-0.14819144 0.13463144 1.0170001 2.3401192e-38
-0.1462543 0.13463144 1.0170001 2.3400835e-38
-0.14431715 0.13463144 1.0170001 2.3400834e-38
-0.14238 0.13463144 1.0170001 2.3399399e-38
-0.14044286 0.13463144 1.0170001 2.3398323e-38
-0.13850573 0.13463144 1.0170001 2.3397605e-38
-0.13697143 0.13502859 1.0200001 2.3395812e-38
-0.13542572 0.13542572 1.023 2.3304693e-38
-0.13347714 0.13542572 1.023 2.3305411e-38
-0.13152857 0.13542572 1.023 2.3303976e-38
-0.12996 0.13582285 1.026 2.3395453e-38
-0.12850477 0.13635239 1.0300001 2.339617e-38
-0.12654287 0.13635239 1.0300001 2.3397246e-38
-0.12458096 0.13635239 1.0300001 2.3396889e-38
-0.12261906 0.13635239 1.0300001 2.3396564e-38
-0.12065715 0.13635239 1.0300001 2.3304403e-38
-0.11869525 0.13635239 1.0300001 2.3304071e-38
-0.17881715 0.13777713 1.026 2.2753455e-38
-0.17634571 0.13737428 1.023 2.2935988e-38
-0.17439714 0.13737428 1.023 2.3123185e-38
-0.17244858 0.13737428 1.023 2.3398686e-38
-0.17000002 0.13697143 1.0200001 2.3399399e-38
-0.16805716 0.13697143 1.0200001 2.3399758e-38
-0.1661143 0.13697143 1.0200001 2.3400116e-38
-0.16368859 0.13656859 1.0170001 2.3400116e-38
-0.16175145 0.13656859 1.0170001 2.3400475e-38
-0.1598143 0.13656859 1.0170001 2.3401551e-38
-0.15787715 0.13656859 1.0170001 2.3402629e-38
-0.15594001 0.13656859 1.0170001 2.3402269e-38
-0.15400288 0.13656859 1.0170001 2.3402269e-38
-0.15206572 0.13656859 1.0170001 2.3401192e-38
-0.15012857 0.13656859 1.0170001 2.3401192e-38
-0.14819144 0.13656859 1.0170001 2.3401192e-38
-0.1462543 0.13656859 1.0170001 2.3400834e-38
-0.14431715 0.13656859 1.0170001 2.3399399e-38
-0.14238 0.13656859 1.0170001 2.3394377e-38
-0.14044286 0.13656859 1.0170001 2.3397605e-38
-0.1389143 0.13697143 1.0200001 2.3397605e-38
-0.13697143 0.13697143 1.0200001 2.3398323e-38
-0.13542572 0.13737428 1.023 2.3399042e-38
-0.13347714 0.13737428 1.023 2.3398323e-38
-0.13191429 0.13777713 1.026 2.3394735e-38
-0.12996 0.13777713 1.026 2.3394377e-38
-0.12850477 0.13831429 1.0300001 2.3394377e-38
