# .PCD v0.7 - Point Cloud Data file format
VERSION 0.7
FIELDS x y z rgb
SIZE 4 4 4 4
TYPE F F F F
COUNT 1 1 1 1
WIDTH 1078
HEIGHT 1
VIEWPOINT 0 0 0 1 0 0 0
POINTS 1078
DATA ascii
0.14168572 0.061921902 1.102 2.341769e-38
0.14378476 0.061921902 1.102 2.341769e-38
0.14535429 0.061697148 1.098 2.3417687e-38
0.14704286 0.061528575 1.095 2.3417686e-38
0.14912857 0.061528575 1.095 2.341768e-38
0.15066192 0.061303813 1.0910001 2.3417675e-38
0.15232 0.06113524 1.0880001 2.3417663e-38
0.15396668 0.060966667 1.085 2.3325817e-38
0.15545811 0.060741913 1.0810001 2.3325811e-38
0.15708001 0.060573336 1.0780001 2.3325805e-38
0.15854286 0.06034857 1.074 2.3417596e-38
0.16014002 0.060180005 1.0710001 2.3413964e-38
0.16172573 0.060011432 1.0680001 2.3402101e-38
0.16314666 0.059786666 1.064 2.2751335e-38
0.16470765 0.059618101 1.0610001 2.2106704e-38
0.16672859 0.059618101 1.0610001 2.2108869e-38
0.083931431 0.063207619 1.0880001 2.3135998e-38
0.086003818 0.063207619 1.0880001 2.322963e-38
0.090397149 0.063381903 1.0910001 2.3230713e-38
0.092814289 0.063614286 1.095 2.323e-38
0.094900005 0.063614286 1.095 2.3325784e-38
0.096985713 0.063614286 1.095 2.3325789e-38
0.10180381 0.064020954 1.102 2.341764e-38
0.10418572 0.064195238 1.105 2.3417652e-38
0.10629047 0.064195238 1.105 2.3417663e-38
0.10839524 0.064195238 1.105 2.3417669e-38
0.1105 0.064195238 1.105 2.3417676e-38
0.11260476 0.064195238 1.105 2.3417679e-38
0.11470952 0.064195238 1.105 2.3417683e-38
0.12146191 0.064427622 1.1090001 2.3417687e-38
0.12357429 0.064427622 1.1090001 2.341769e-38
0.12523332 0.064195238 1.105 2.3417689e-38
0.1273381 0.064195238 1.105 2.3417689e-38
0.12944287 0.064195238 1.105 2.3417689e-38
0.13154761 0.064195238 1.105 2.341769e-38
0.13365239 0.064195238 1.105 2.341769e-38
0.13575713 0.064195238 1.105 2.341769e-38
0.13786191 0.064195238 1.105 2.3417687e-38
0.13996667 0.064195238 1.105 2.3417684e-38
0.14168572 0.064020954 1.102 2.3417686e-38
0.14378476 0.064020954 1.102 2.3417689e-38
0.14535429 0.063788578 1.098 2.3417686e-38
0.14704286 0.063614286 1.095 2.3417684e-38
0.14912857 0.063614286 1.095 2.3417679e-38
0.15066192 0.063381903 1.0910001 2.3417675e-38
0.15232 0.063207619 1.0880001 2.3417663e-38
0.15545811 0.062800951 1.0810001 2.3417651e-38
0.15708001 0.062626667 1.0780001 2.3417648e-38
0.15854286 0.062394284 1.074 2.3416883e-38
0.16014002 0.062220007 1.0710001 2.3413248e-38
0.16172573 0.062045716 1.0680001 2.3398156e-38
0.16314666 0.061813332 1.064 2.2844249e-38
0.16424191 0.061464764 1.0580001 2.2384721e-38
0.16625714 0.061464764 1.0580001 2.2384371e-38
0.086557142 0.065700002 1.095 2.3228918e-38
0.088642858 0.065700002 1.095 2.3229276e-38
0.090728574 0.065700002 1.095 2.3137807e-38
0.092814289 0.065700002 1.095 2.3230729e-38
0.094900005 0.065700002 1.095 2.332579e-38
0.096985713 0.065700002 1.095 2.3325789e-38
0.10180381 0.066119999 1.102 2.3325805e-38
0.10418572 0.066299997 1.105 2.3325815e-38
0.10629047 0.066299997 1.105 2.3325825e-38
0.10839524 0.066299997 1.105 2.3325831e-38
0.1105 0.066299997 1.105 2.3325838e-38
0.11260476 0.066299997 1.105 2.332584e-38
0.11512477 0.066540003 1.1090001 2.3325845e-38
0.11723715 0.066540003 1.1090001 2.3417682e-38
0.11934953 0.066540003 1.1090001 2.3417683e-38
0.12146191 0.066540003 1.1090001 2.3417686e-38
0.12357429 0.066540003 1.1090001 2.341769e-38
0.12523332 0.066299997 1.105 2.341769e-38
0.1273381 0.066299997 1.105 2.341769e-38
0.12944287 0.066299997 1.105 2.341769e-38
0.13154761 0.066299997 1.105 2.341769e-38
0.13365239 0.066299997 1.105 2.341769e-38
0.13575713 0.066299997 1.105 2.341769e-38
0.13786191 0.066299997 1.105 2.3417684e-38
0.13996667 0.066299997 1.105 2.3417679e-38
0.14168572 0.066119999 1.102 2.3417683e-38
0.14378476 0.066119999 1.102 2.3417687e-38
0.14535429 0.065880001 1.098 2.3417684e-38
0.14704286 0.065700002 1.095 2.3417683e-38
0.14912857 0.065700002 1.095 2.3417679e-38
0.15066192 0.065460004 1.0910001 2.3417676e-38
0.15274002 0.065460004 1.0910001 2.3417665e-38
0.15439239 0.065280005 1.0880001 2.3417655e-38
0.15708001 0.064680003 1.0780001 2.3417656e-38
0.16112 0.063839994 1.064 2.2843558e-38
0.16424191 0.063480005 1.0580001 2.2571978e-38
0.16625714 0.063480005 1.0580001 2.2568755e-38
0.086557142 0.067785718 1.095 2.332075e-38
0.088885717 0.067971431 1.098 2.322927e-38
0.09097714 0.067971431 1.098 2.3138163e-38
0.093068577 0.067971431 1.098 2.3231446e-38
0.094900005 0.067785718 1.095 2.3324359e-38
0.096985713 0.067785718 1.095 2.3324361e-38
0.10180381 0.068219043 1.102 2.3325803e-38
0.10418572 0.068404764 1.105 2.332581e-38
0.10629047 0.068404764 1.105 2.3325818e-38
0.10839524 0.068404764 1.105 2.3325826e-38
0.1105 0.068404764 1.105 2.3325835e-38
0.11301239 0.068652384 1.1090001 2.332584e-38
0.11512477 0.068652384 1.1090001 2.3325847e-38
0.11723715 0.068652384 1.1090001 2.3417683e-38
0.11934953 0.068652384 1.1090001 2.3417682e-38
0.12146191 0.068652384 1.1090001 2.3417684e-38
0.12357429 0.068652384 1.1090001 2.3417687e-38
0.12568668 0.068652384 1.1090001 2.3417689e-38
0.12779905 0.068652384 1.1090001 2.341769e-38
0.12944287 0.068404764 1.105 2.341769e-38
0.13154761 0.068404764 1.105 2.341769e-38
0.13365239 0.068404764 1.105 2.341769e-38
0.13575713 0.068404764 1.105 2.341769e-38
0.13786191 0.068404764 1.105 2.3417687e-38
0.13996667 0.068404764 1.105 2.3417684e-38
0.14207143 0.068404764 1.105 2.3417686e-38
0.14378476 0.068219043 1.102 2.3417689e-38
0.14535429 0.067971431 1.098 2.3417686e-38
0.14704286 0.067785718 1.095 2.3417684e-38
0.14912857 0.067785718 1.095 2.3417682e-38
0.15121429 0.067785718 1.095 2.341768e-38
0.15274002 0.067538105 1.0910001 2.3417669e-38
0.15439239 0.067352384 1.0880001 2.3417659e-38
0.15751716 0.066919051 1.0810001 2.3417572e-38
0.16112 0.065866672 1.064 2.2292897e-38
0.086794287 0.070062861 1.098 2.3325769e-38
0.088885717 0.070062861 1.098 2.332397e-38
0.09097714 0.070062861 1.098 2.3230715e-38
0.093068577 0.070062861 1.098 2.3323642e-38
0.095160007 0.070062861 1.098 2.3324722e-38
0.09725143 0.070062861 1.098 2.3325087e-38
0.099704765 0.070318095 1.102 2.3417637e-38
0.10208096 0.070509523 1.105 2.33258e-38
0.10418572 0.070509523 1.105 2.3325805e-38
0.10629047 0.070509523 1.105 2.3325812e-38
0.10839524 0.070509523 1.105 2.3325822e-38
0.11090001 0.070764773 1.1090001 2.3325832e-38
0.11301239 0.070764773 1.1090001 2.3325842e-38
0.11512477 0.070764773 1.1090001 2.3325852e-38
0.11723715 0.070764773 1.1090001 2.3417684e-38
0.11934953 0.070764773 1.1090001 2.3417682e-38
0.12146191 0.070764773 1.1090001 2.3417683e-38
0.12357429 0.070764773 1.1090001 2.3417686e-38
0.12568668 0.070764773 1.1090001 2.3417687e-38
0.12779905 0.070764773 1.1090001 2.341769e-38
0.12991144 0.070764773 1.1090001 2.341769e-38
0.13575713 0.070509523 1.105 2.341769e-38
0.13786191 0.070509523 1.105 2.341769e-38
0.13996667 0.070509523 1.105 2.341769e-38
0.14207143 0.070509523 1.105 2.341769e-38
0.14378476 0.070318095 1.102 2.341769e-38
0.14535429 0.070062861 1.098 2.3417687e-38
0.14744572 0.070062861 1.098 2.3417686e-38
0.14912857 0.069871433 1.095 2.3417686e-38
0.15121429 0.069871433 1.095 2.3417686e-38
0.15274002 0.069616199 1.0910001 2.3417675e-38
0.1548181 0.069616199 1.0910001 2.3417663e-38
0.15957619 0.068978101 1.0810001 2.008344e-38
0.088885717 0.072154284 1.098 2.3417626e-38
0.09097714 0.072154284 1.098 2.3417631e-38
0.093068577 0.072154284 1.098 2.3417637e-38
0.095160007 0.072154284 1.098 2.3417279e-38
0.099704765 0.072417147 1.102 2.3417635e-38
0.10208096 0.07261429 1.105 2.3417631e-38
0.10418572 0.07261429 1.105 2.3417638e-38
0.10629047 0.07261429 1.105 2.3417645e-38
0.10878763 0.072877146 1.1090001 2.3417651e-38
0.11090001 0.072877146 1.1090001 2.3325822e-38
0.11301239 0.072877146 1.1090001 2.3325831e-38
0.11512477 0.072877146 1.1090001 2.3325839e-38
0.11723715 0.072877146 1.1090001 2.3417675e-38
0.11934953 0.072877146 1.1090001 2.3417675e-38
0.12146191 0.072877146 1.1090001 2.3417679e-38
0.12357429 0.072877146 1.1090001 2.3417683e-38
0.12568668 0.072877146 1.1090001 2.3417686e-38
0.12779905 0.072877146 1.1090001 2.3417687e-38
0.12991144 0.072877146 1.1090001 2.3417687e-38
0.13202383 0.072877146 1.1090001 2.3417689e-38
0.1341362 0.072877146 1.1090001 2.3417689e-38
0.13996667 0.07261429 1.105 2.3417686e-38
0.14207143 0.07261429 1.105 2.3417686e-38
0.1441762 0.07261429 1.105 2.3417687e-38
0.14744572 0.072154284 1.098 2.3417684e-38
0.14912857 0.071957141 1.095 2.3417675e-38
0.15121429 0.071957141 1.095 2.3417665e-38
0.1533 0.071957141 1.095 2.3417593e-38
0.1548181 0.071694292 1.0910001 2.3417522e-38
0.1568962 0.071694292 1.0910001 2.3389856e-38
0.080151431 0.070256196 1.039 1.8978318e-38
0.082130477 0.070256196 1.039 1.9274642e-38
0.09097714 0.074245714 1.098 2.259113e-38
0.093068577 0.074245714 1.098 2.2958468e-38
0.095160007 0.074245714 1.098 2.3417644e-38
0.09725143 0.074245714 1.098 2.3417642e-38
0.099704765 0.074516185 1.102 2.3417635e-38
0.10208096 0.074719049 1.105 2.3417628e-38
0.10418572 0.074719049 1.105 2.3417635e-38
0.10878763 0.074989527 1.1090001 2.3417645e-38
0.11090001 0.074989527 1.1090001 2.3325812e-38
0.11301239 0.074989527 1.1090001 2.3325102e-38
0.11512477 0.074989527 1.1090001 2.3325468e-38
0.11723715 0.074989527 1.1090001 2.3416947e-38
0.11934953 0.074989527 1.1090001 2.3417669e-38
0.12146191 0.074989527 1.1090001 2.3417316e-38
0.12357429 0.074989527 1.1090001 2.3417682e-38
0.12568668 0.074989527 1.1090001 2.3417683e-38
0.12779905 0.074989527 1.1090001 2.3417686e-38
0.12991144 0.074989527 1.1090001 2.3417686e-38
0.13202383 0.074989527 1.1090001 2.3417687e-38
0.1341362 0.074989527 1.1090001 2.3417689e-38
0.13624857 0.074989527 1.1090001 2.341769e-38
0.13836096 0.074989527 1.1090001 2.3417686e-38
0.13996667 0.074719049 1.105 2.3417683e-38
0.14207143 0.074719049 1.105 2.3417683e-38
0.1441762 0.074719049 1.105 2.3417684e-38
0.1458838 0.074516185 1.102 2.3417684e-38
0.14744572 0.074245714 1.098 2.3417684e-38
0.14912857 0.074042857 1.095 2.3417663e-38
0.1533 0.074042857 1.095 1.9556475e-38
0.1494181 0.070256196 1.039 1.6545145e-38
0.15139715 0.070256196 1.039 1.7107279e-38
0.076413333 0.072443813 1.0420001 1.579612e-38
0.078398094 0.072443813 1.0420001 1.4327516e-38
0.080151431 0.072235234 1.039 1.4695622e-38
0.082130477 0.072235234 1.039 1.5086322e-38
0.087304763 0.071609534 1.0300001 2.2587869e-38
0.10180381 0.076615237 1.102 2.3417626e-38
0.10418572 0.076823808 1.105 2.3417641e-38
0.10629047 0.076823808 1.105 2.3417658e-38
0.11090001 0.077101909 1.1090001 2.3417668e-38
0.11301239 0.077101909 1.1090001 2.3417672e-38
0.11512477 0.077101909 1.1090001 2.3417676e-38
0.11723715 0.077101909 1.1090001 2.3417677e-38
0.11934953 0.077101909 1.1090001 2.3417679e-38
0.12146191 0.077101909 1.1090001 2.3417682e-38
0.12357429 0.077101909 1.1090001 2.3417686e-38
0.12568668 0.077101909 1.1090001 2.3417686e-38
0.12779905 0.077101909 1.1090001 2.3417687e-38
0.12991144 0.077101909 1.1090001 2.3417687e-38
0.13202383 0.077101909 1.1090001 2.3417687e-38
0.1341362 0.077101909 1.1090001 2.3417682e-38
0.13836096 0.077101909 1.1090001 2.3417669e-38
0.13996667 0.076823808 1.105 2.3417662e-38
0.14207143 0.076823808 1.105 2.3417635e-38
0.1441762 0.076823808 1.105 2.341761e-38
0.14743905 0.072235234 1.039 1.2673681e-38
0.1494181 0.072235234 1.039 9.7421604e-39
0.15139715 0.072235234 1.039 1.4250391e-38
0.15337619 0.072235234 1.039 1.8790923e-38
0.15535524 0.072235234 1.039 2.110301e-38
0.076413333 0.074428573 1.0420001 1.6079823e-38
0.078398094 0.074428573 1.0420001 1.460615e-38
0.080382861 0.074428573 1.0420001 1.4787669e-38
0.082130477 0.074214287 1.039 1.4969616e-38
0.083866663 0.074000001 1.036 1.6533042e-38
0.085591428 0.073785715 1.033 1.8096813e-38
0.087304763 0.073571436 1.0300001 1.8671201e-38
0.089266673 0.073571436 1.0300001 1.9245917e-38
0.10208096 0.078928567 1.105 2.0382388e-38
0.10418572 0.078928567 1.105 2.1305432e-38
0.10629047 0.078928567 1.105 2.16728e-38
0.11090001 0.07921429 1.1090001 2.2407498e-38
0.11301239 0.07921429 1.1090001 2.2683005e-38
0.11512477 0.07921429 1.1090001 2.3050348e-38
0.11723715 0.07921429 1.1090001 2.341769e-38
0.11934953 0.07921429 1.1090001 2.341769e-38
0.12146191 0.07921429 1.1090001 2.341769e-38
0.12357429 0.07921429 1.1090001 2.341769e-38
0.12568668 0.07921429 1.1090001 2.341769e-38
0.12779905 0.07921429 1.1090001 2.3234019e-38
0.12991144 0.07921429 1.1090001 2.3142182e-38
0.13202383 0.07921429 1.1090001 2.3050347e-38
0.1341362 0.07921429 1.1090001 2.3050333e-38
0.14265238 0.073785715 1.033 1.5245052e-38
0.14462 0.073785715 1.033 1.3775685e-38
0.14701334 0.074000001 1.036 1.2214481e-38
0.14898667 0.074000001 1.036 1.0653359e-38
0.15139715 0.074214287 1.039 1.499482e-38
0.15337619 0.074214287 1.039 1.9353091e-38
0.15535524 0.074214287 1.039 2.1378525e-38
0.080382861 0.076413333 1.0420001 1.4884539e-38
0.082367629 0.076413333 1.0420001 1.4879545e-38
0.084109522 0.07619334 1.039 1.469411e-38
0.085840002 0.075973332 1.036 1.4602304e-38
0.087559044 0.075753331 1.033 1.4877841e-38
0.089526661 0.075753331 1.033 1.5154076e-38
0.092828572 0.075240001 1.026 1.5447526e-38
0.094782859 0.075240001 1.026 1.730145e-38
0.10418572 0.081033334 1.105 1.9147529e-38
0.10629047 0.081033334 1.105 1.9983776e-38
0.10839524 0.081033334 1.105 2.0909684e-38
0.11754287 0.074800007 1.0200001 2.3133135e-38
0.11948573 0.074800007 1.0200001 2.2944082e-38
0.12142859 0.074800007 1.0200001 2.2755029e-38
0.13152857 0.07502 1.023 1.5537918e-38
0.13347714 0.07502 1.023 1.3592113e-38
0.13831429 0.075533338 1.0300001 1.0928903e-38
0.14068475 0.075753331 1.033 1.0102328e-38
0.14306666 0.075973332 1.036 1.1020627e-38
0.14504001 0.075973332 1.036 1.2035118e-38
0.14743905 0.07619334 1.039 1.1764272e-38
0.1494181 0.07619334 1.039 1.1573866e-38
0.15139715 0.07619334 1.039 1.573919e-38
0.15337619 0.07619334 1.039 1.9998447e-38
0.15535524 0.07619334 1.039 2.1654384e-38
0.15733428 0.07619334 1.039 2.3397457e-38
0.080845721 0.078849532 1.0480001 1.4700882e-38
0.082604766 0.078623816 1.0450001 1.4881669e-38
0.084352389 0.078398094 1.0420001 1.4878069e-38
0.086088575 0.078172378 1.039 1.4877715e-38
0.087813333 0.07794667 1.036 1.5428732e-38
0.089786664 0.07794667 1.036 1.6071576e-38
0.092828572 0.077194288 1.026 1.6071572e-38
0.094782859 0.077194288 1.026 1.6622585e-38
0.096737146 0.077194288 1.026 1.7265491e-38
0.098691426 0.077194288 1.026 1.7541056e-38
0.1023 0.076968573 1.023 1.8092132e-38
0.10424857 0.076968573 1.023 1.8367647e-38
0.10619715 0.076968573 1.023 1.8649978e-38
0.10814571 0.076968573 1.023 1.9024147e-38
0.11009429 0.076968573 1.023 1.8746141e-38
0.11204285 0.076968573 1.023 1.8560317e-38
0.11399143 0.076968573 1.023 1.8556371e-38
0.11594 0.076968573 1.023 1.8552414e-38
0.11788857 0.076968573 1.023 1.845985e-38
0.11983714 0.076968573 1.023 1.8367653e-38
0.12142859 0.076742865 1.0200001 1.8275814e-38
0.12337144 0.076742865 1.0200001 1.8183923e-38
0.12568285 0.076968573 1.023 1.6990007e-38
0.12763143 0.076968573 1.023 1.5887968e-38
0.12958001 0.076968573 1.023 1.5245109e-38
0.13191429 0.077194288 1.026 1.4602232e-38
0.13386856 0.077194288 1.026 1.3592014e-38
0.13635239 0.077495247 1.0300001 1.2673659e-38
0.13831429 0.077495247 1.0300001 1.2122646e-38
0.14068475 0.077720955 1.033 1.1479804e-38
0.14306666 0.07794667 1.036 1.1942577e-38
0.14545999 0.078172378 1.039 1.2410715e-38
0.14743905 0.078172378 1.039 1.1946867e-38
0.1494181 0.078172378 1.039 1.1484542e-38
0.15139715 0.078172378 1.039 1.6020077e-38
0.15337619 0.078172378 1.039 2.0552327e-38
0.15535524 0.078172378 1.039 2.1929169e-38
0.15733428 0.078172378 1.039 2.3305974e-38
0.080845721 0.080845721 1.0480001 1.4611916e-38
0.082604766 0.080614291 1.0450001 1.4884903e-38
0.084352389 0.080382861 1.0420001 1.4970633e-38
0.086088575 0.080151431 1.039 1.5154662e-38
0.088067621 0.080151431 1.039 1.6073734e-38
0.089786664 0.079920001 1.036 1.6991009e-38
0.093190484 0.079457149 1.0300001 1.6714433e-38
0.094782859 0.079148576 1.026 1.6071596e-38
0.096737146 0.079148576 1.026 1.542877e-38
0.098691426 0.079148576 1.026 1.5245121e-38
0.10064571 0.079148576 1.026 1.5061466e-38
0.1026 0.079148576 1.026 1.4969645e-38
0.10455429 0.079148576 1.026 1.487781e-38
0.10650857 0.079148576 1.026 1.4785975e-38
0.10846286 0.079148576 1.026 1.4694143e-38
0.11041714 0.079148576 1.026 1.4234971e-38
0.11237143 0.079148576 1.026 1.3775794e-38
0.11399143 0.078917138 1.023 1.3775794e-38
0.11594 0.078917138 1.023 1.3867624e-38
0.11788857 0.078917138 1.023 1.3867618e-38
0.11948573 0.078685723 1.0200001 1.3959452e-38
0.12142859 0.078685723 1.0200001 1.3867615e-38
0.12337144 0.078685723 1.0200001 1.3775752e-38
0.12568285 0.078917138 1.023 1.3592054e-38
0.12763143 0.078917138 1.023 1.3500226e-38
0.12958001 0.078917138 1.023 1.3592067e-38
0.13191429 0.079148576 1.026 1.3684239e-38
0.13386856 0.079148576 1.026 1.3684574e-38
0.13635239 0.079457149 1.0300001 1.3686006e-38
0.13831429 0.079457149 1.0300001 1.3320096e-38
0.14068475 0.079688564 1.033 1.295455e-38
0.14306666 0.079920001 1.036 1.2864511e-38
0.14545999 0.080151431 1.039 1.2864507e-38
0.14743905 0.080151431 1.039 1.212982e-38
0.1494181 0.080151431 1.039 1.1398455e-38
0.15139715 0.080151431 1.039 1.6209147e-38
0.15337619 0.080151431 1.039 2.1104068e-38
0.15535524 0.080151431 1.039 2.2208263e-38
0.15733428 0.080151431 1.039 2.3305258e-38
0.079150476 0.083158098 1.052 1.4238822e-38
0.081154287 0.083158098 1.052 1.4334618e-38
0.08284191 0.08284191 1.0480001 1.4337485e-38
0.084595241 0.082604766 1.0450001 1.4606173e-38
0.086337149 0.082367629 1.0420001 1.4882391e-38
0.088067621 0.082130477 1.039 1.5891858e-38
0.090046667 0.082130477 1.039 1.6901328e-38
0.091760002 0.081893332 1.036 1.6809133e-38
0.093190484 0.081419051 1.0300001 1.6817403e-38
0.095152393 0.081419051 1.0300001 1.6074489e-38
0.097114295 0.081419051 1.0300001 1.5248316e-38
0.099076197 0.081419051 1.0300001 1.5247945e-38
0.10064571 0.081102863 1.026 1.5155749e-38
0.1026 0.081102863 1.026 1.4970643e-38
0.10455429 0.081102863 1.026 1.4785888e-38
0.10650857 0.081102863 1.026 1.496955e-38
0.10846286 0.081102863 1.026 1.5061383e-38
0.11041714 0.081102863 1.026 1.4877711e-38
0.11237143 0.081102863 1.026 1.469404e-38
0.11399143 0.080865711 1.023 1.4785875e-38
0.11594 0.080865711 1.023 1.4877711e-38
0.11788857 0.080865711 1.023 1.469404e-38
0.11983714 0.080865711 1.023 1.4602204e-38
0.12178572 0.080865711 1.023 1.4327056e-38
0.12373429 0.080865711 1.023 1.4143745e-38
0.12568285 0.080865711 1.023 1.3960793e-38
0.12800571 0.081102863 1.026 1.3686028e-38
0.12996 0.081102863 1.026 1.3595294e-38
0.13191429 0.081102863 1.026 1.3504875e-38
0.13386856 0.081102863 1.026 1.3137515e-38
0.13635239 0.081419051 1.0300001 1.2862002e-38
0.13831429 0.081419051 1.0300001 1.2862355e-38
0.14068475 0.081656188 1.033 1.2865223e-38
0.14545999 0.082130477 1.039 1.2500391e-38
0.14743905 0.082130477 1.039 1.2039778e-38
0.1494181 0.082130477 1.039 1.1587875e-38
0.15139715 0.082130477 1.039 1.6488618e-38
0.15337619 0.082130477 1.039 2.1380302e-38
0.15535524 0.082130477 1.039 2.2298306e-38
0.15733428 0.082130477 1.039 2.3304902e-38
0.075357147 0.085404761 1.0550001 1.8863656e-38
0.077366672 0.085404761 1.0550001 1.6544025e-38
0.079150476 0.085161909 1.052 1.424348e-38
0.081154287 0.085161909 1.052 1.4057304e-38
0.08284191 0.0848381 1.0480001 1.3873991e-38
0.084595241 0.084595241 1.0450001 1.4241692e-38
0.086337149 0.084352389 1.0420001 1.4700867e-38
0.088321909 0.084352389 1.0420001 1.5711054e-38
0.090046667 0.084109522 1.039 1.6811287e-38
0.091760002 0.083866663 1.036 1.6904197e-38
0.095152393 0.08338096 1.0300001 1.60777e-38
0.097114295 0.08338096 1.0300001 1.5158622e-38
0.099076197 0.08338096 1.0300001 1.5252964e-38
0.10103811 0.08338096 1.0300001 1.5342647e-38
0.1026 0.083057143 1.026 1.5065349e-38
0.10455429 0.083057143 1.026 1.4790197e-38
0.10692382 0.08338096 1.0300001 1.5157895e-38
0.10846286 0.083057143 1.026 1.552272e-38
0.11041714 0.083057143 1.026 1.5615627e-38
0.11237143 0.083057143 1.026 1.5704592e-38
0.11432571 0.083057143 1.026 1.5797143e-38
0.11628 0.083057143 1.026 1.5889339e-38
0.11788857 0.082814284 1.023 1.5523434e-38
0.11983714 0.082814284 1.023 1.5247208e-38
0.12178572 0.082814284 1.023 1.4879504e-38
0.12373429 0.082814284 1.023 1.4604717e-38
0.12605143 0.083057143 1.026 1.4238454e-38
0.12800571 0.083057143 1.026 1.3962598e-38
0.12996 0.083057143 1.026 1.3686744e-38
0.13191429 0.083057143 1.026 1.3411591e-38
0.13439049 0.08338096 1.0300001 1.2677617e-38
0.13635239 0.08338096 1.0300001 1.2035482e-38
0.13831429 0.08338096 1.0300001 1.2404614e-38
0.14068475 0.083623812 1.033 1.2866304e-38
0.14348096 0.084109522 1.039 1.2500398e-38
0.14545999 0.084109522 1.039 1.2225247e-38
0.14743905 0.084109522 1.039 1.1950095e-38
0.1494181 0.084109522 1.039 1.1771179e-38
0.15183429 0.084352389 1.0420001 1.6676577e-38
0.15381905 0.084352389 1.0420001 2.1654719e-38
0.15580381 0.084352389 1.0420001 2.2480175e-38
0.15778857 0.084352389 1.0420001 2.3397448e-38
0.075357147 0.087414287 1.0550001 1.9236023e-38
0.077366672 0.087414287 1.0550001 1.6820971e-38
0.079150476 0.087165713 1.052 1.4429657e-38
0.081154287 0.087165713 1.052 1.4425349e-38
0.08284191 0.086834297 1.0480001 1.433244e-38
0.084595241 0.086585723 1.0450001 1.4516831e-38
0.086337149 0.086337149 1.0420001 1.470122e-38
0.088321909 0.086337149 1.0420001 1.5710335e-38
0.090046667 0.086088575 1.039 1.6718373e-38
0.09202572 0.086088575 1.039 1.6810569e-38
0.093733333 0.085840002 1.036 1.6902765e-38
0.095152393 0.085342862 1.0300001 1.5708905e-38
0.097114295 0.085342862 1.0300001 1.460724e-38
0.099076197 0.085342862 1.0300001 1.4791632e-38
0.10103811 0.085342862 1.0300001 1.4976382e-38
0.10300001 0.085342862 1.0300001 1.4883831e-38
0.10496191 0.085342862 1.0300001 1.4791637e-38
0.10692382 0.085342862 1.0300001 1.506571e-38
0.10888572 0.085342862 1.0300001 1.533834e-38
0.11084762 0.085342862 1.0300001 1.5429809e-38
0.11237143 0.08501143 1.026 1.5613478e-38
0.11432571 0.08501143 1.026 1.5429804e-38
0.11628 0.08501143 1.026 1.5338689e-38
0.11823429 0.08501143 1.026 1.5155022e-38
0.12018858 0.08501143 1.026 1.4879869e-38
0.12214286 0.08501143 1.026 1.4604358e-38
0.12409715 0.08501143 1.026 1.4422123e-38
0.12605143 0.08501143 1.026 1.4054067e-38
0.12850477 0.085342862 1.0300001 1.3776405e-38
0.13046667 0.085342862 1.0300001 1.3593807e-38
0.13242859 0.085342862 1.0300001 1.3409783e-38
0.13439049 0.085342862 1.0300001 1.2952764e-38
0.13635239 0.085342862 1.0300001 1.2586854e-38
0.13831429 0.085342862 1.0300001 1.2772316e-38
0.14068475 0.085591428 1.033 1.3051055e-38
0.14348096 0.086088575 1.039 1.2684077e-38
0.14545999 0.086088575 1.039 1.2318163e-38
0.14786477 0.086337149 1.0420001 1.2318874e-38
0.14984953 0.086337149 1.0420001 1.241366e-38
0.15183429 0.086337149 1.0420001 1.7135738e-38
0.15381905 0.086337149 1.0420001 2.183766e-38
0.15580381 0.086337149 1.0420001 2.2387614e-38
0.15778857 0.086337149 1.0420001 2.2935395e-38
0.075357147 0.089423813 1.0550001 1.9601216e-38
0.077366672 0.089423813 1.0550001 1.7098267e-38
0.079150476 0.089169532 1.052 1.4709116e-38
0.081154287 0.089169532 1.052 1.4793424e-38
0.08284191 0.088830486 1.0480001 1.4883459e-38
0.0848381 0.088830486 1.0480001 1.4790183e-38
0.086585723 0.088576198 1.0450001 1.4699067e-38
0.088321909 0.088321909 1.0420001 1.5709978e-38
0.090306669 0.088321909 1.0420001 1.6717297e-38
0.09202572 0.088067621 1.039 1.6808773e-38
0.093733333 0.087813333 1.036 1.6901687e-38
0.095429517 0.087559044 1.033 1.5432681e-38
0.097114295 0.087304763 1.0300001 1.4056226e-38
0.099076197 0.087304763 1.0300001 1.4331016e-38
0.10103811 0.087304763 1.0300001 1.4608321e-38
0.10300001 0.087304763 1.0300001 1.4701237e-38
0.10496191 0.087304763 1.0300001 1.488347e-38
0.10692382 0.087304763 1.0300001 1.5065344e-38
0.10888572 0.087304763 1.0300001 1.5246141e-38
0.11084762 0.087304763 1.0300001 1.5337254e-38
0.11280953 0.087304763 1.0300001 1.5520922e-38
0.11432571 0.086965717 1.026 1.5153577e-38
0.11628 0.086965717 1.026 1.4879151e-38
0.11823429 0.086965717 1.026 1.4695484e-38
0.12018858 0.086965717 1.026 1.4603647e-38
0.12214286 0.086965717 1.026 1.442141e-38
0.12458096 0.087304763 1.0300001 1.4238456e-38
0.12654287 0.087304763 1.0300001 1.3869679e-38
0.12850477 0.087304763 1.0300001 1.3594172e-38
0.13046667 0.087304763 1.0300001 1.3502336e-38
0.13242859 0.087304763 1.0300001 1.3503054e-38
0.13439049 0.087304763 1.0300001 1.3320101e-38
0.13635239 0.087304763 1.0300001 1.3137508e-38
0.13871714 0.087559044 1.033 1.3140022e-38
0.14068475 0.087559044 1.033 1.3233299e-38
0.14348096 0.088067621 1.039 1.2775923e-38
0.14588001 0.088321909 1.0420001 1.2408927e-38
0.14786477 0.088321909 1.0420001 1.2688008e-38
0.14984953 0.088321909 1.0420001 1.3062967e-38
0.15183429 0.088321909 1.0420001 1.7594919e-38
0.15381905 0.088321909 1.0420001 2.2116751e-38
0.15580381 0.088321909 1.0420001 2.2295052e-38
0.15778857 0.088321909 1.0420001 2.2568767e-38
0.075357147 0.091433339 1.0550001 1.9874574e-38
0.077366672 0.091433339 1.0550001 1.7188306e-38
0.079150476 0.091173336 1.052 1.4621591e-38
0.081154287 0.091173336 1.052 1.4793441e-38
0.08284191 0.090826675 1.0480001 1.497566e-38
0.084595241 0.090566672 1.0450001 1.4883091e-38
0.086585723 0.090566672 1.0450001 1.4699067e-38
0.088321909 0.090306669 1.0420001 1.5709263e-38
0.090306669 0.090306669 1.0420001 1.6624744e-38
0.09202572 0.090046667 1.039 1.6900247e-38
0.093733333 0.089786664 1.036 1.7084998e-38
0.095429517 0.089526661 1.033 1.5616352e-38
0.097397141 0.089526661 1.033 1.414806e-38
0.099076197 0.089266673 1.0300001 1.4422492e-38
0.10103811 0.089266673 1.0300001 1.4699796e-38
0.10300001 0.089266673 1.0300001 1.4791637e-38
0.10496191 0.089266673 1.0300001 1.4883467e-38
0.10692382 0.089266673 1.0300001 1.5064263e-38
0.10888572 0.089266673 1.0300001 1.5337614e-38
0.11084762 0.089266673 1.0300001 1.5521282e-38
0.11280953 0.089266673 1.0300001 1.570495e-38
0.11477143 0.089266673 1.0300001 1.5337605e-38
0.11673334 0.089266673 1.0300001 1.4970626e-38
0.11869525 0.089266673 1.0300001 1.4786961e-38
0.12065715 0.089266673 1.0300001 1.4603291e-38
0.12261906 0.089266673 1.0300001 1.4421416e-38
0.12458096 0.089266673 1.0300001 1.4330653e-38
0.12654287 0.089266673 1.0300001 1.3961875e-38
0.12850477 0.089266673 1.0300001 1.3594176e-38
0.13046667 0.089266673 1.0300001 1.3410506e-38
0.13242859 0.089266673 1.0300001 1.3321536e-38
0.1347819 0.089526661 1.033 1.3045667e-38
0.13674952 0.089526661 1.033 1.2770167e-38
0.13871714 0.089526661 1.033 1.2863805e-38
0.14389525 0.090306669 1.0420001 1.2408951e-38
0.14588001 0.090306669 1.0420001 1.1949037e-38
0.14786477 0.090306669 1.0420001 1.2681192e-38
0.14984953 0.090306669 1.0420001 1.3528605e-38
0.15183429 0.090306669 1.0420001 1.796657e-38
0.15381905 0.090306669 1.0420001 2.2487679e-38
0.15580381 0.090306669 1.0420001 2.2663464e-38
0.15778857 0.090306669 1.0420001 2.2936822e-38
0.075357147 0.093442865 1.0550001 2.0154751e-38
0.077366672 0.093442865 1.0550001 1.7370542e-38
0.079376198 0.093442865 1.0550001 1.4621951e-38
0.081154287 0.093177147 1.052 1.4885636e-38
0.08284191 0.092822865 1.0480001 1.5161126e-38
0.0848381 0.092822865 1.0480001 1.4977797e-38
0.086585723 0.092557147 1.0450001 1.4791978e-38
0.088321909 0.09229143 1.0420001 1.5708545e-38
0.090306669 0.09229143 1.0420001 1.6624753e-38
0.09202572 0.09202572 1.039 1.6991383e-38
0.093733333 0.091760002 1.036 1.736123e-38
0.095706671 0.091760002 1.036 1.580002e-38
0.097397141 0.091494285 1.033 1.4330651e-38
0.099364758 0.091494285 1.033 1.4606156e-38
0.10133238 0.091494285 1.033 1.4883464e-38
0.10300001 0.091228582 1.0300001 1.4882396e-38
0.10526761 0.091494285 1.033 1.4973523e-38
0.10723524 0.091494285 1.033 1.5155409e-38
0.10888572 0.091228582 1.0300001 1.5430181e-38
0.11084762 0.091228582 1.0300001 1.5613476e-38
0.11280953 0.091228582 1.0300001 1.5889339e-38
0.11477143 0.091228582 1.0300001 1.5522354e-38
0.11673334 0.091228582 1.0300001 1.5155026e-38
0.11869525 0.091228582 1.0300001 1.4880251e-38
0.12065715 0.091228582 1.0300001 1.4603304e-38
0.12261906 0.091228582 1.0300001 1.4513617e-38
0.12458096 0.091228582 1.0300001 1.4421417e-38
0.12654287 0.091228582 1.0300001 1.4054069e-38
0.12887904 0.091494285 1.033 1.3685658e-38
0.13084666 0.091494285 1.033 1.3410519e-38
0.13281429 0.091494285 1.033 1.3137153e-38
0.1347819 0.091494285 1.033 1.2772672e-38
0.13674952 0.091494285 1.033 1.2496456e-38
0.13912 0.091760002 1.036 1.2587582e-38
0.14389525 0.09229143 1.0420001 1.2133813e-38
0.1463 0.092557147 1.0450001 1.1578847e-38
0.14829049 0.092557147 1.0450001 1.2766603e-38
0.15028097 0.092557147 1.0450001 1.3993895e-38
0.15227143 0.092557147 1.0450001 1.8430048e-38
0.1542619 0.092557147 1.0450001 2.2947936e-38
0.15580381 0.09229143 1.0420001 2.3123726e-38
0.15778857 0.09229143 1.0420001 2.3303813e-38
0.075357147 0.095452383 1.0550001 2.0435288e-38
0.077366672 0.095452383 1.0550001 1.7466324e-38
0.079376198 0.095452383 1.0550001 1.4530474e-38
0.081154287 0.095180951 1.052 1.4794878e-38
0.08284191 0.094819061 1.0480001 1.5070367e-38
0.0848381 0.094819061 1.0480001 1.4794485e-38
0.086585723 0.094547629 1.0450001 1.4517547e-38
0.088321909 0.094276197 1.0420001 1.5618501e-38
0.090306669 0.094276197 1.0420001 1.6624761e-38
0.09202572 0.094004765 1.039 1.6808449e-38
0.094004765 0.094004765 1.039 1.708645e-38
0.095706671 0.093733333 1.036 1.6168437e-38
0.097397141 0.093461908 1.033 1.5250795e-38
0.099364758 0.093461908 1.033 1.5158957e-38
0.10133238 0.093461908 1.033 1.5158968e-38
0.1033 0.093461908 1.033 1.5157904e-38
0.10526761 0.093461908 1.033 1.5064655e-38
0.10723524 0.093461908 1.033 1.5339108e-38
0.10920285 0.093461908 1.033 1.5523107e-38
0.11084762 0.093190484 1.0300001 1.5982971e-38
0.11280953 0.093190484 1.0300001 1.6351387e-38
0.11477143 0.093190484 1.0300001 1.561455e-38
0.11673334 0.093190484 1.0300001 1.4879531e-38
0.11869525 0.093190484 1.0300001 1.4420018e-38
0.12065715 0.093190484 1.0300001 1.4052664e-38
0.12261906 0.093190484 1.0300001 1.4052653e-38
0.12458096 0.093190484 1.0300001 1.4144478e-38
0.12691143 0.093461908 1.033 1.3868963e-38
0.12887904 0.093461908 1.033 1.3685665e-38
0.13084666 0.093461908 1.033 1.3318337e-38
0.13281429 0.093461908 1.033 1.3044966e-38
0.1347819 0.093461908 1.033 1.286415e-38
0.13714667 0.093733333 1.036 1.2773758e-38
0.13912 0.093733333 1.036 1.2774126e-38
0.14150192 0.094004765 1.039 1.2683025e-38
0.14389525 0.094276197 1.0420001 1.2223507e-38
0.1463 0.094547629 1.0450001 1.1760027e-38
0.14829049 0.094547629 1.0450001 1.3044652e-38
0.15028097 0.094547629 1.0450001 1.4367349e-38
0.15227143 0.094547629 1.0450001 1.8708422e-38
0.1542619 0.094547629 1.0450001 2.3132685e-38
0.15580381 0.094276197 1.0420001 2.3031182e-38
0.15778857 0.094276197 1.0420001 2.2844286e-38
0.077366672 0.097461909 1.0550001 1.7654313e-38
0.079376198 0.097461909 1.0550001 1.4530832e-38
0.081154287 0.09718477 1.052 1.4796296e-38
0.083158098 0.09718477 1.052 1.507036e-38
0.085161909 0.09718477 1.052 1.4703009e-38
0.086834297 0.096815243 1.0480001 1.4333876e-38
0.088576198 0.096538097 1.0450001 1.5528817e-38
0.090306669 0.096260957 1.0420001 1.6719457e-38
0.09229143 0.096260957 1.0420001 1.6717311e-38
0.094004765 0.095983811 1.039 1.6812008e-38
0.095983811 0.095983811 1.039 1.6446809e-38
0.097680002 0.095706671 1.036 1.6170585e-38
0.099653333 0.095706671 1.036 1.5802884e-38
0.10162666 0.095706671 1.036 1.5525231e-38
0.1036 0.095706671 1.036 1.5341564e-38
0.10692382 0.095152393 1.0300001 1.5431275e-38
0.10920285 0.095429517 1.033 1.5707121e-38
0.11117047 0.095429517 1.033 1.6258474e-38
0.11313809 0.095429517 1.033 1.6901321e-38
0.11477143 0.095152393 1.0300001 1.5798578e-38
0.11673334 0.095152393 1.0300001 1.4697289e-38
0.11869525 0.095152393 1.0300001 1.4055536e-38
0.12065715 0.095152393 1.0300001 1.3502003e-38
0.12297619 0.095429517 1.033 1.3686024e-38
0.1249438 0.095429517 1.033 1.3960803e-38
0.12691143 0.095429517 1.033 1.3777482e-38
0.12887904 0.095429517 1.033 1.3685654e-38
0.13122666 0.095706671 1.036 1.3318319e-38
0.1332 0.095706671 1.036 1.2952764e-38
0.13517334 0.095706671 1.036 1.3047462e-38
0.13714667 0.095706671 1.036 1.3140021e-38
0.13912 0.095706671 1.036 1.2956355e-38
0.14150192 0.095983811 1.039 1.2772332e-38
0.14389525 0.096260957 1.0420001 1.2404999e-38
0.1507124 0.096815243 1.0480001 1.4737218e-38
0.15270858 0.096815243 1.0480001 1.9078649e-38
0.15470478 0.096815243 1.0480001 2.340138e-38
0.1562524 0.096538097 1.0450001 2.293898e-38
0.079376198 0.099471435 1.0550001 1.4531549e-38
0.081385717 0.099471435 1.0550001 1.4793411e-38
0.083158098 0.099188574 1.052 1.5070353e-38
0.085161909 0.099188574 1.052 1.4701936e-38
0.086834297 0.098811433 1.0480001 1.4425713e-38
0.088830486 0.098811433 1.0480001 1.5527741e-38
0.090566672 0.098528579 1.0450001 1.6721958e-38
0.09229143 0.098245718 1.0420001 1.6629762e-38
0.094276197 0.098245718 1.0420001 1.6537925e-38
0.095983811 0.097962856 1.039 1.6078747e-38
0.097962856 0.097962856 1.039 1.5619572e-38
0.099653333 0.097680002 1.036 1.5526306e-38
0.10162666 0.097680002 1.036 1.5524509e-38
0.1036 0.097680002 1.036 1.5340837e-38
0.10557333 0.097680002 1.036 1.5249007e-38
0.10692382 0.097114295 1.0300001 1.5431609e-38
0.10920285 0.097397141 1.033 1.5613478e-38
0.11117047 0.097397141 1.033 1.5983324e-38
0.11313809 0.097397141 1.033 1.625883e-38
0.11477143 0.097114295 1.0300001 1.5616341e-38
0.11673334 0.097114295 1.0300001 1.4882389e-38
0.11904095 0.097397141 1.033 1.4421792e-38
0.12100857 0.097397141 1.033 1.3870055e-38
0.12297619 0.097397141 1.033 1.3868973e-38
0.1249438 0.097397141 1.033 1.3960442e-38
0.12728 0.097680002 1.036 1.3685285e-38
0.12925333 0.097680002 1.036 1.3501972e-38
0.13122666 0.097680002 1.036 1.2951676e-38
0.13358571 0.097962856 1.039 1.2493578e-38
0.13556476 0.097962856 1.039 1.2771239e-38
0.13754381 0.097962856 1.039 1.3140376e-38
0.13952287 0.097962856 1.039 1.2774112e-38
0.14191049 0.098245718 1.0420001 1.2500755e-38
0.14928381 0.099188574 1.052 1.3875863e-38
0.15128762 0.099188574 1.052 1.5658099e-38
0.15329143 0.099188574 1.052 1.9538561e-38
0.15470478 0.098811433 1.0480001 2.3404972e-38
0.079376198 0.10148096 1.0550001 1.4615132e-38
0.081385717 0.10148096 1.0550001 1.479054e-38
0.083158098 0.10119238 1.052 1.5070351e-38
0.085161909 0.10119238 1.052 1.4791975e-38
0.087165713 0.10119238 1.052 1.451719e-38
0.088830486 0.10080762 1.0480001 1.5619939e-38
0.090566672 0.10051905 1.0450001 1.6722324e-38
0.09229143 0.10023048 1.0420001 1.653937e-38
0.094276197 0.10023048 1.0420001 1.635426e-38
0.095983811 0.099941909 1.039 1.571105e-38
0.097962856 0.099941909 1.039 1.5067843e-38
0.099941909 0.099941909 1.039 1.5249722e-38
0.10192095 0.099941909 1.039 1.5524867e-38
0.1039 0.099941909 1.039 1.5432671e-38
0.10557333 0.099653333 1.036 1.5340838e-38
0.11117047 0.099364758 1.033 1.5616341e-38
0.11313809 0.099364758 1.033 1.5708176e-38
0.11510571 0.099364758 1.033 1.5433028e-38
0.11707333 0.099364758 1.033 1.5157533e-38
0.11904095 0.099364758 1.033 1.4696573e-38
0.12100857 0.099364758 1.033 1.4328509e-38
0.12297619 0.099364758 1.033 1.4144117e-38
0.1249438 0.099364758 1.033 1.396008e-38
0.12728 0.099653333 1.036 1.3684567e-38
0.12925333 0.099653333 1.036 1.3409778e-38
0.13160668 0.099941909 1.039 1.2677246e-38
0.13358571 0.099941909 1.039 1.2034399e-38
0.13556476 0.099941909 1.039 1.2587207e-38
0.13754381 0.099941909 1.039 1.3232566e-38
0.13992572 0.10023048 1.0420001 1.2683707e-38
0.14191049 0.10023048 1.0420001 1.2225605e-38
0.14430954 0.10051905 1.0450001 1.2138073e-38
0.14928381 0.10119238 1.052 1.4337196e-38
0.15128762 0.10119238 1.052 1.667224e-38
0.15329143 0.10119238 1.052 1.999882e-38
0.15529525 0.10119238 1.052 2.3396365e-38
0.15729904 0.10119238 1.052 2.2753507e-38
0.079376198 0.10349049 1.0550001 1.4974224e-38
0.081385717 0.10349049 1.0550001 1.4883452e-38
0.083395243 0.10349049 1.0550001 1.4886679e-38
0.085161909 0.10319619 1.052 1.4703008e-38
0.087165713 0.10319619 1.052 1.4611538e-38
0.088830486 0.10280382 1.0480001 1.5712138e-38
0.090826675 0.10280382 1.0480001 1.6811296e-38
0.092557147 0.10250953 1.0450001 1.6536869e-38
0.094276197 0.10221524 1.0420001 1.6354267e-38
0.096260957 0.10221524 1.0420001 1.580289e-38
0.098245718 0.10221524 1.0420001 1.5342635e-38
0.099941909 0.10192095 1.039 1.5525228e-38
0.10192095 0.10192095 1.039 1.571069e-38
0.1039 0.10192095 1.039 1.5342269e-38
0.10587905 0.10192095 1.039 1.5066046e-38
0.1078581 0.10192095 1.039 1.524936e-38
0.10952 0.10162666 1.036 1.5524865e-38
0.11149333 0.10162666 1.036 1.5524865e-38
0.11313809 0.10133238 1.033 1.5615266e-38
0.11510571 0.10133238 1.033 1.5615624e-38
0.11707333 0.10133238 1.033 1.5708184e-38
0.11904095 0.10133238 1.033 1.4972073e-38
0.12100857 0.10133238 1.033 1.4235951e-38
0.12333333 0.10162666 1.036 1.4051918e-38
0.12530667 0.10162666 1.036 1.3959718e-38
0.12764858 0.10192095 1.039 1.3684567e-38
0.12962763 0.10192095 1.039 1.3409778e-38
0.13160668 0.10192095 1.039 1.2952394e-38
0.13358571 0.10192095 1.039 1.2493575e-38
0.13556476 0.10192095 1.039 1.2770875e-38
0.13794096 0.10221524 1.0420001 1.304961e-38
0.13992572 0.10221524 1.0420001 1.2591869e-38
0.14231905 0.10250953 1.0450001 1.2042648e-38
0.14430954 0.10250953 1.0450001 1.212982e-38
0.14928381 0.10319619 1.052 1.5265598e-38
0.15128762 0.10319619 1.052 1.8237752e-38
0.15329143 0.10319619 1.052 2.0825347e-38
0.15529525 0.10319619 1.052 2.3399238e-38
0.15729904 0.10319619 1.052 2.3031166e-38
0.079376198 0.10550001 1.0550001 1.5341566e-38
0.081385717 0.10550001 1.0550001 1.4976723e-38
0.083395243 0.10550001 1.0550001 1.4703372e-38
0.085404761 0.10550001 1.0550001 1.4704451e-38
0.087165713 0.10520001 1.052 1.4795213e-38
0.089169532 0.10520001 1.052 1.5896526e-38
0.090826675 0.10480001 1.0480001 1.6995333e-38
0.092557147 0.1045 1.0450001 1.6627644e-38
0.094547629 0.1045 1.0450001 1.6353915e-38
0.096260957 0.10420001 1.0420001 1.5986918e-38
0.098245718 0.10420001 1.0420001 1.5709256e-38
0.099941909 0.1039 1.039 1.5801091e-38
0.10192095 0.1039 1.039 1.5985836e-38
0.1039 0.1039 1.039 1.5344782e-38
0.10587905 0.1039 1.039 1.4790183e-38
0.1078581 0.1039 1.039 1.5065689e-38
0.10952 0.1036 1.036 1.5433032e-38
0.11149333 0.1036 1.036 1.5433391e-38
0.11346667 0.1036 1.036 1.5523432e-38
0.11510571 0.1033 1.033 1.5890771e-38
0.11707333 0.1033 1.033 1.6257758e-38
0.11904095 0.1033 1.033 1.5155737e-38
0.12100857 0.1033 1.033 1.414411e-38
0.12333333 0.1036 1.036 1.4053349e-38
0.12530667 0.1036 1.036 1.3960076e-38
0.12764858 0.1039 1.039 1.3684925e-38
0.12962763 0.1039 1.039 1.3410136e-38
0.13160668 0.1039 1.039 1.3227541e-38
0.13358571 0.1039 1.039 1.3044229e-38
0.13556476 0.1039 1.039 1.2954905e-38
0.13794096 0.10420001 1.0420001 1.2954908e-38
0.13992572 0.10420001 1.0420001 1.2403896e-38
0.14231905 0.1045 1.0450001 1.1943281e-38
0.14728001 0.10520001 1.052 1.2506922e-38
0.14928381 0.10520001 1.052 1.6194407e-38
0.15128762 0.10520001 1.052 1.98987e-38
0.15329143 0.10520001 1.052 2.1652207e-38
0.15529525 0.10520001 1.052 2.3399226e-38
0.15729904 0.10520001 1.052 2.3398143e-38
0.079376198 0.10750953 1.0550001 1.5433401e-38
0.081385717 0.10750953 1.0550001 1.4974214e-38
0.083395243 0.10750953 1.0550001 1.4611901e-38
0.085404761 0.10750953 1.0550001 1.4612267e-38
0.087165713 0.10720381 1.052 1.4609037e-38
0.089169532 0.10720381 1.052 1.5802179e-38
0.090826675 0.1067962 1.0480001 1.7087536e-38
0.092822865 0.1067962 1.0480001 1.6720212e-38
0.094547629 0.10649049 1.0450001 1.6445758e-38
0.096260957 0.10618477 1.0420001 1.6078393e-38
0.098245718 0.10618477 1.0420001 1.5800732e-38
0.099941909 0.10587905 1.039 1.5801088e-38
0.10192095 0.10587905 1.039 1.5801807e-38
0.1039 0.10587905 1.039 1.5433391e-38
0.10587905 0.10587905 1.039 1.5065332e-38
0.1078581 0.10587905 1.039 1.5248285e-38
0.10983714 0.10587905 1.039 1.5523434e-38
0.1118162 0.10587905 1.039 1.5431602e-38
0.11346667 0.10557333 1.036 1.5340121e-38
0.11544 0.10557333 1.036 1.5431593e-38
0.11741333 0.10557333 1.036 1.5615624e-38
0.11938667 0.10557333 1.036 1.4879148e-38
0.12136 0.10557333 1.036 1.423594e-38
0.12369048 0.10587905 1.039 1.4052269e-38
0.12566952 0.10587905 1.039 1.3960432e-38
0.12764858 0.10587905 1.039 1.3500896e-38
0.12962763 0.10587905 1.039 1.3134988e-38
0.13160668 0.10587905 1.039 1.3135349e-38
0.13358571 0.10587905 1.039 1.3135707e-38
0.1359562 0.10618477 1.0420001 1.2768007e-38
0.13794096 0.10618477 1.0420001 1.2400309e-38
0.13992572 0.10618477 1.0420001 1.2770883e-38
0.14231905 0.10649049 1.0450001 1.313284e-38
0.14728001 0.10720381 1.052 1.5096996e-38
0.14928381 0.10720381 1.052 1.7673871e-38
0.15171905 0.10750953 1.0550001 2.027431e-38
0.15372857 0.10750953 1.0550001 2.1653265e-38
0.081617147 0.10983048 1.0580001 1.5063894e-38
0.083395243 0.10951906 1.0550001 1.4613689e-38
0.085404761 0.10951906 1.0550001 1.4523651e-38
0.087165713 0.10920762 1.052 1.4517194e-38
0.089169532 0.10920762 1.052 1.5802891e-38
0.091173336 0.10920762 1.052 1.7178997e-38
0.092822865 0.10879239 1.0480001 1.6812381e-38
0.094819061 0.10879239 1.0480001 1.6537221e-38
0.096538097 0.10848096 1.0450001 1.6170226e-38
0.098245718 0.10816953 1.0420001 1.5892207e-38
0.10023048 0.10816953 1.0420001 1.5707459e-38
0.10221524 0.10816953 1.0420001 1.5615266e-38
0.1039 0.1078581 1.039 1.5431598e-38
0.10587905 0.1078581 1.039 1.5338684e-38
0.1078581 0.1078581 1.039 1.5521278e-38
0.10983714 0.1078581 1.039 1.5707461e-38
0.1118162 0.1078581 1.039 1.543124e-38
0.11379524 0.1078581 1.039 1.5248284e-38
0.11577429 0.1078581 1.039 1.5064251e-38
0.11775334 0.1078581 1.039 1.4971341e-38
0.11938667 0.10754667 1.036 1.4602926e-38
0.12171143 0.1078581 1.039 1.4327418e-38
0.12369048 0.1078581 1.039 1.4143388e-38
0.12566952 0.1078581 1.039 1.3959716e-38
0.12764858 0.1078581 1.039 1.3408701e-38
0.12962763 0.1078581 1.039 1.2859482e-38
0.13160668 0.1078581 1.039 1.3041719e-38
0.13397144 0.10816953 1.0420001 1.3225389e-38
0.1359562 0.10816953 1.0420001 1.2582541e-38
0.13794096 0.10816953 1.0420001 1.1941141e-38
0.13992572 0.10816953 1.0420001 1.3138245e-38
0.14231905 0.10848096 1.0450001 1.4440099e-38
0.1452762 0.10920762 1.052 1.6017459e-38
0.14728001 0.10920762 1.052 1.7673433e-38
0.15460287 0.11014191 1.0610001 2.174905e-38
0.15662383 0.11014191 1.0610001 2.2939327e-38
0.081617147 0.11184572 1.0580001 1.5156087e-38
0.083395243 0.11152858 1.0550001 1.4615836e-38
0.085404761 0.11152858 1.0550001 1.4524002e-38
0.087414287 0.11152858 1.0550001 1.4517546e-38
0.089169532 0.11121143 1.052 1.5802168e-38
0.091173336 0.11121143 1.052 1.7087146e-38
0.093177147 0.11121143 1.052 1.6903475e-38
0.094819061 0.11078858 1.0480001 1.6720162e-38
0.096815243 0.11078858 1.0480001 1.6445012e-38
0.098528579 0.11047143 1.0450001 1.6167354e-38
0.10023048 0.11015429 1.0420001 1.5983324e-38
0.10221524 0.11015429 1.0420001 1.5797861e-38
0.10420001 0.11015429 1.0420001 1.5521998e-38
0.10618477 0.11015429 1.0420001 1.5338324e-38
0.1078581 0.10983714 1.039 1.5430158e-38
0.10983714 0.10983714 1.039 1.5615983e-38
0.1118162 0.10983714 1.039 1.5431955e-38
0.11379524 0.10983714 1.039 1.5248282e-38
0.11577429 0.10983714 1.039 1.5063535e-38
0.11775334 0.10983714 1.039 1.4878072e-38
0.11973238 0.10983714 1.039 1.4602927e-38
0.12171143 0.10983714 1.039 1.4328138e-38
0.12369048 0.10983714 1.039 1.4051555e-38
0.12566952 0.10983714 1.039 1.3775687e-38
0.12764858 0.10983714 1.039 1.3500537e-38
0.12962763 0.10983714 1.039 1.3226824e-38
0.13198668 0.11015429 1.0420001 1.3133914e-38
0.13397144 0.11015429 1.0420001 1.3132836e-38
0.1359562 0.11015429 1.0420001 1.3684208e-38
0.13794096 0.11015429 1.0420001 1.4237038e-38
0.14032859 0.11047143 1.0450001 1.5453884e-38
0.1452762 0.11121143 1.052 1.7036674e-38
0.14770001 0.11152858 1.0550001 1.7402969e-38
0.15013525 0.11184572 1.0580001 1.924796e-38
0.15258192 0.11216287 1.0610001 2.1194089e-38
0.15460287 0.11216287 1.0610001 2.1836585e-38
0.15662383 0.11216287 1.0610001 2.2570916e-38
0.15864477 0.11216287 1.0610001 2.2293622e-38
0.083632387 0.11386096 1.0580001 1.4708034e-38
0.085647628 0.11386096 1.0580001 1.4616203e-38
0.087414287 0.1135381 1.0550001 1.4518631e-38
0.089423813 0.1135381 1.0550001 1.5713211e-38
0.091173336 0.11321525 1.052 1.6995315e-38
0.093177147 0.11321525 1.052 1.6902758e-38
0.094819061 0.11278477 1.0480001 1.6903115e-38
0.096815243 0.11278477 1.0480001 1.672016e-38
0.098528579 0.11246191 1.0450001 1.6535417e-38
0.10023048 0.11213905 1.0420001 1.6259197e-38
0.10221524 0.11213905 1.0420001 1.5985127e-38
0.10420001 0.11213905 1.0420001 1.5711057e-38
0.10618477 0.11213905 1.0420001 1.5433404e-38
0.10816953 0.11213905 1.0420001 1.5431257e-38
0.10983714 0.1118162 1.039 1.5523443e-38
0.1118162 0.1118162 1.039 1.5431959e-38
0.11379524 0.1118162 1.039 1.5340122e-38
0.11577429 0.1118162 1.039 1.5063179e-38
0.11775334 0.1118162 1.039 1.4786961e-38
0.11973238 0.1118162 1.039 1.4602937e-38
0.12171143 0.1118162 1.039 1.441926e-38
0.12404761 0.11213905 1.0420001 1.4051914e-38
0.12603238 0.11213905 1.0420001 1.3684569e-38
0.12801716 0.11213905 1.0420001 1.3684567e-38
0.13000192 0.11213905 1.0420001 1.3684925e-38
0.13198668 0.11213905 1.0420001 1.3318302e-38
0.13397144 0.11213905 1.0420001 1.3041015e-38
0.1359562 0.11213905 1.0420001 1.4785903e-38
0.13794096 0.11213905 1.0420001 1.6557356e-38
0.14032859 0.11246191 1.0450001 1.7777796e-38
0.1452762 0.11321525 1.052 1.8043625e-38
0.15013525 0.11386096 1.0580001 1.9434858e-38
0.15258192 0.11418382 1.0610001 2.1744385e-38
0.15504001 0.11450667 1.064 2.1924119e-38
0.15706666 0.11450667 1.064 2.2200703e-38
0.083632387 0.11587621 1.0580001 1.4708397e-38
0.085647628 0.11587621 1.0580001 1.4522582e-38
0.087414287 0.11554762 1.0550001 1.4336403e-38
0.089423813 0.11554762 1.0550001 1.5621026e-38
0.091173336 0.11521905 1.052 1.6903485e-38
0.093177147 0.11521905 1.052 1.6903116e-38
0.095180951 0.11521905 1.052 1.6809845e-38
0.096815243 0.11478096 1.0480001 1.6719084e-38
0.098528579 0.11445239 1.0450001 1.6536498e-38
0.10051905 0.11445239 1.0450001 1.6168088e-38
0.10250953 0.11445239 1.0450001 1.5806486e-38
0.10420001 0.11412381 1.0420001 1.5619587e-38
0.10618477 0.11412381 1.0420001 1.5343017e-38
0.10816953 0.11412381 1.0420001 1.5618179e-38
0.11015429 0.11412381 1.0420001 1.5893669e-38
0.11213905 0.11412381 1.0420001 1.5615993e-38
0.11412381 0.11412381 1.0420001 1.5431962e-38
0.11610858 0.11412381 1.0420001 1.5247572e-38
0.11809334 0.11412381 1.0420001 1.5063909e-38
0.1200781 0.11412381 1.0420001 1.4878813e-38
0.12206285 0.11412381 1.0420001 1.4695131e-38
0.12404761 0.11412381 1.0420001 1.4327062e-38
0.12603238 0.11412381 1.0420001 1.3961511e-38
0.12801716 0.11412381 1.0420001 1.3959714e-38
0.13000192 0.11412381 1.0420001 1.3867521e-38
0.13198668 0.11412381 1.0420001 1.3867523e-38
0.13397144 0.11412381 1.0420001 1.3867549e-38
0.13634762 0.11445239 1.0450001 1.5533888e-38
0.1383381 0.11445239 1.0450001 1.731647e-38
0.14032859 0.11445239 1.0450001 1.7773536e-38
0.14327239 0.11521905 1.052 1.8322373e-38
0.1452762 0.11521905 1.052 1.7861378e-38
0.14812002 0.11587621 1.0580001 1.7400804e-38
0.15013525 0.11587621 1.0580001 1.9619605e-38
0.15504001 0.11653333 1.064 2.1925198e-38
0.15706666 0.11653333 1.064 2.2016314e-38
0.087414287 0.11755715 1.0550001 1.4151649e-38
0.089423813 0.11755715 1.0550001 1.5528828e-38
0.091433339 0.11755715 1.0550001 1.6903484e-38
0.093177147 0.11722286 1.052 1.6812001e-38
0.095180951 0.11722286 1.052 1.6809846e-38
0.09718477 0.11722286 1.052 1.671765e-38
0.10051905 0.11644286 1.0450001 1.6169156e-38
0.10250953 0.11644286 1.0450001 1.5710696e-38
0.10420001 0.11610858 1.0420001 1.5528102e-38
0.10618477 0.11610858 1.0420001 1.5343368e-38
0.10816953 0.11610858 1.0420001 1.5803275e-38
0.11015429 0.11610858 1.0420001 1.625957e-38
0.11213905 0.11610858 1.0420001 1.5891857e-38
0.11412381 0.11610858 1.0420001 1.5523436e-38
0.11610858 0.11610858 1.0420001 1.543124e-38
0.11809334 0.11610858 1.0420001 1.5430526e-38
0.1200781 0.11610858 1.0420001 1.52465e-38
0.12206285 0.11610858 1.0420001 1.5062107e-38
0.12404761 0.11610858 1.0420001 1.4694402e-38
0.12603238 0.11610858 1.0420001 1.4326702e-38
0.12801716 0.11610858 1.0420001 1.4234868e-38
0.13000192 0.11610858 1.0420001 1.4143029e-38
0.13236669 0.11644286 1.0450001 1.4418534e-38
0.13435715 0.11644286 1.0450001 1.47992e-38
0.13634762 0.11644286 1.0450001 1.6374087e-38
0.1383381 0.11644286 1.0450001 1.8054385e-38
0.14327239 0.11722286 1.052 1.7768469e-38
