# .PCD v0.7 - Point Cloud Data file format
VERSION 0.7
FIELDS x y z rgb
SIZE 4 4 4 4
TYPE F F F F
COUNT 1 1 1 1
WIDTH 1009
HEIGHT 1
VIEWPOINT 0 0 0 1 0 0 0
POINTS 1009
DATA ascii
-0.19954857 -0.26748002 1.4860001 2.3400317e-38
-0.19671811 -0.26748002 1.4860001 2.3401026e-38
-0.19388762 -0.26748002 1.4860001 2.3401384e-38
-0.19105716 -0.26748002 1.4860001 2.3401026e-38
-0.18822667 -0.26748002 1.4860001 2.3401037e-38
-0.18539621 -0.26748002 1.4860001 2.3400691e-38
-0.18256572 -0.26748002 1.4860001 2.3400681e-38
-0.17973526 -0.26748002 1.4860001 2.3400673e-38
-0.17690475 -0.26748002 1.4860001 2.3401026e-38
-0.17407429 -0.26748002 1.4860001 2.3400663e-38
-0.17055239 -0.26640001 1.48 2.3400664e-38
-0.16841334 -0.26748002 1.4860001 2.3400307e-38
-0.16558285 -0.26748002 1.4860001 2.3400296e-38
-0.16275239 -0.26748002 1.4860001 2.3400286e-38
-0.15927619 -0.26640001 1.48 2.3400656e-38
-0.15363809 -0.26640001 1.48 2.3400314e-38
-0.15081905 -0.26640001 1.48 2.3400319e-38
-0.148 -0.26640001 1.48 2.3400663e-38
-0.14518096 -0.26640001 1.48 2.3400647e-38
-0.14236189 -0.26640001 1.48 2.3400656e-38
-0.10853333 -0.26640001 1.48 2.3400685e-38
-0.10571428 -0.26640001 1.48 2.3401066e-38
-0.085980952 -0.26640001 1.48 2.3401012e-38
-0.083161905 -0.26640001 1.48 2.3401006e-38
-0.080342859 -0.26640001 1.48 2.3401015e-38
-0.077523813 -0.26640001 1.48 2.3401024e-38
-0.074704766 -0.26640001 1.48 2.3401029e-38
-0.07188572 -0.26640001 1.48 2.3401391e-38
0.0042285714 -0.26640001 1.48 2.3402099e-38
0.0070476192 -0.26640001 1.48 2.3402452e-38
0.009866667 -0.26640001 1.48 2.3403171e-38
0.012685714 -0.26640001 1.48 2.3402455e-38
0.015504763 -0.26640001 1.48 2.3402815e-38
0.018323809 -0.26640001 1.48 2.3403175e-38
0.021142857 -0.26640001 1.48 2.340174e-38
0.023961904 -0.26640001 1.48 2.340174e-38
0.052152384 -0.26640001 1.48 2.3402456e-38
0.05497143 -0.26640001 1.48 2.3401735e-38
0.057790477 -0.26640001 1.48 2.3402448e-38
0.060609523 -0.26640001 1.48 2.3403173e-38
0.063428566 -0.26640001 1.48 2.3311344e-38
0.069066674 -0.26640001 1.48 2.3311347e-38
0.07188572 -0.26640001 1.48 2.3402818e-38
0.074704766 -0.26640001 1.48 2.3402096e-38
-0.75458008 -0.23170193 1.3010001 2.0633059e-38
-0.75499243 -0.23259239 1.3060001 2.0634863e-38
-0.75250483 -0.23259239 1.3060001 2.063484e-38
-0.75288862 -0.23348287 1.3110001 2.0910683e-38
-0.75039148 -0.23348287 1.3110001 2.12773e-38
-0.74789435 -0.23348287 1.3110001 2.0365397e-38
-0.74539721 -0.23348287 1.3110001 1.9445635e-38
-0.73470956 -0.24666193 1.3850001 7.9136803e-39
-0.73207146 -0.24666193 1.3850001 8.006599e-39
-0.72627336 -0.24559334 1.3790001 8.1899043e-39
-0.7236467 -0.24559334 1.3790001 8.3735683e-39
-0.6775229 -0.25699142 1.4430001 5.6999595e-39
-0.67477435 -0.25699142 1.4430001 1.0109511e-38
-0.62095618 -0.26571813 1.4920001 2.2105246e-38
-0.61811429 -0.26571813 1.4920001 2.201413e-38
-0.61527246 -0.26571813 1.4920001 2.1922287e-38
-0.61243051 -0.26571813 1.4920001 2.1922282e-38
-0.31842858 -0.26464954 1.4860001 2.3399587e-38
-0.3155981 -0.26464954 1.4860001 2.3399233e-38
-0.30993715 -0.26464954 1.4860001 2.3399249e-38
-0.30710667 -0.26464954 1.4860001 2.3399232e-38
-0.3042762 -0.26464954 1.4860001 2.3399575e-38
-0.28446287 -0.26464954 1.4860001 2.3398869e-38
-0.25898859 -0.26464954 1.4860001 2.340031e-38
-0.25615808 -0.26464954 1.4860001 2.3400312e-38
-0.25332764 -0.26464954 1.4860001 2.3400314e-38
-0.25049713 -0.26464954 1.4860001 2.3399959e-38
-0.24766669 -0.26464954 1.4860001 2.3399965e-38
-0.2448362 -0.26464954 1.4860001 2.3399957e-38
-0.24200574 -0.26464954 1.4860001 2.3400307e-38
-0.23917525 -0.26464954 1.4860001 2.3400307e-38
-0.23634477 -0.26464954 1.4860001 2.3400666e-38
-0.23351428 -0.26464954 1.4860001 2.340066e-38
-0.23068382 -0.26464954 1.4860001 2.3400654e-38
-0.22785333 -0.26464954 1.4860001 2.3400666e-38
-0.22502287 -0.26464954 1.4860001 2.3400318e-38
-0.22219238 -0.26464954 1.4860001 2.340031e-38
-0.21936192 -0.26464954 1.4860001 2.3401377e-38
-0.21653143 -0.26464954 1.4860001 2.3401016e-38
-0.21370097 -0.26464954 1.4860001 2.3401015e-38
-0.21087047 -0.26464954 1.4860001 2.3401016e-38
-0.20804001 -0.26464954 1.4860001 2.3401017e-38
-0.20520952 -0.26464954 1.4860001 2.3400668e-38
-0.20237906 -0.26464954 1.4860001 2.3400318e-38
-0.19954857 -0.26464954 1.4860001 2.3400314e-38
-0.19671811 -0.26464954 1.4860001 2.3401029e-38
-0.19388762 -0.26464954 1.4860001 2.3401024e-38
-0.19105716 -0.26464954 1.4860001 2.3401022e-38
-0.18822667 -0.26464954 1.4860001 2.3400673e-38
-0.18539621 -0.26464954 1.4860001 2.3400324e-38
-0.18256572 -0.26464954 1.4860001 2.3401033e-38
-0.17973526 -0.26464954 1.4860001 2.3401383e-38
-0.17690475 -0.26464954 1.4860001 2.3401023e-38
-0.17407429 -0.26464954 1.4860001 2.3400305e-38
-0.1712438 -0.26464954 1.4860001 2.3400305e-38
-0.16841334 -0.26464954 1.4860001 2.3400666e-38
-0.16558285 -0.26464954 1.4860001 2.3400301e-38
-0.16275239 -0.26464954 1.4860001 2.3400297e-38
-0.15927619 -0.26358095 1.48 2.3400301e-38
-0.15645714 -0.26358095 1.48 2.3400307e-38
-0.15363809 -0.26358095 1.48 2.3400311e-38
-0.15081905 -0.26358095 1.48 2.3400317e-38
-0.148 -0.26358095 1.48 2.3400666e-38
-0.14518096 -0.26358095 1.48 2.3400657e-38
-0.14293905 -0.26464954 1.4860001 2.3400668e-38
-0.14010859 -0.26464954 1.4860001 2.3401397e-38
-0.13727809 -0.26464954 1.4860001 2.3401384e-38
-0.13444763 -0.26464954 1.4860001 2.3401731e-38
-0.12312572 -0.26464954 1.4860001 2.3400661e-38
-0.12029524 -0.26464954 1.4860001 2.3400668e-38
-0.11746477 -0.26464954 1.4860001 2.3400675e-38
-0.11463429 -0.26464954 1.4860001 2.3400671e-38
-0.11180381 -0.26464954 1.4860001 2.3400666e-38
-0.10897334 -0.26464954 1.4860001 2.3400678e-38
-0.10614286 -0.26464954 1.4860001 2.3401051e-38
-0.10331238 -0.26464954 1.4860001 2.3401394e-38
-0.10048191 -0.26464954 1.4860001 2.3401379e-38
-0.097651429 -0.26464954 1.4860001 2.3401386e-38
-0.094820954 -0.26464954 1.4860001 2.3402109e-38
-0.091990478 -0.26464954 1.4860001 2.3402102e-38
-0.089160003 -0.26464954 1.4860001 2.3401379e-38
-0.086329527 -0.26464954 1.4860001 2.3401017e-38
-0.083161905 -0.26358095 1.48 2.3400297e-38
-0.07188572 -0.26358095 1.48 2.34014e-38
0.009866667 -0.26358095 1.48 2.3403174e-38
0.012685714 -0.26358095 1.48 2.340174e-38
0.015504763 -0.26358095 1.48 2.3402814e-38
0.018323809 -0.26358095 1.48 2.3403171e-38
0.021142857 -0.26358095 1.48 2.3402808e-38
0.023961904 -0.26358095 1.48 2.3402445e-38
0.05497143 -0.26358095 1.48 2.3402459e-38
0.057790477 -0.26358095 1.48 2.3402454e-38
0.060609523 -0.26358095 1.48 2.3402461e-38
0.063428566 -0.26358095 1.48 2.3403904e-38
0.06624762 -0.26358095 1.48 2.340354e-38
0.069066674 -0.26358095 1.48 2.3404253e-38
0.07188572 -0.26358095 1.48 2.3402458e-38
0.074704766 -0.26358095 1.48 2.3402458e-38
0.077523813 -0.26358095 1.48 2.3402462e-38
0.080342859 -0.26358095 1.48 2.3402826e-38
-0.75705814 -0.22922383 1.3010001 1.8706659e-38
-0.75748003 -0.23010477 1.3060001 1.8613398e-38
-0.75499243 -0.23010477 1.3060001 1.8797439e-38
-0.75250483 -0.23010477 1.3060001 1.8981427e-38
-0.75288862 -0.23098573 1.3110001 1.6227038e-38
-0.75039148 -0.23098573 1.3110001 1.3380838e-38
-0.74789435 -0.23098573 1.3110001 1.1626621e-38
-0.74539721 -0.23098573 1.3110001 9.7806457e-39
-0.74573338 -0.23186669 1.3160001 9.2128354e-39
-0.73415333 -0.24296667 1.3790001 7.6378109e-39
-0.73470956 -0.24402381 1.3850001 8.006585e-39
-0.72890002 -0.24296667 1.3790001 8.1913308e-39
-0.72627336 -0.24296667 1.3790001 8.2846012e-39
-0.7236467 -0.24296667 1.3790001 8.468631e-39
-0.68302 -0.25424287 1.4430001 1.943769e-38
-0.68027145 -0.25424287 1.4430001 1.3248801e-38
-0.6775229 -0.25424287 1.4430001 7.1635793e-39
-0.67477435 -0.25424287 1.4430001 9.4630106e-39
-0.61811429 -0.26287621 1.4920001 2.1830456e-38
-0.61527246 -0.26287621 1.4920001 2.1830816e-38
-0.41918099 -0.26287621 1.4920001 2.3398149e-38
-0.41633907 -0.26287621 1.4920001 2.339958e-38
-0.41349715 -0.26287621 1.4920001 2.3306665e-38
-0.41065526 -0.26287621 1.4920001 2.3306668e-38
-0.40781337 -0.26287621 1.4920001 2.3214835e-38
-0.40497145 -0.26287621 1.4920001 2.3214834e-38
-0.3155981 -0.26181903 1.4860001 2.3399235e-38
-0.30993715 -0.26181903 1.4860001 2.3399243e-38
-0.30710667 -0.26181903 1.4860001 2.3399951e-38
-0.3042762 -0.26181903 1.4860001 2.3399224e-38
-0.25332764 -0.26181903 1.4860001 2.3400314e-38
-0.25049713 -0.26181903 1.4860001 2.3399965e-38
-0.2448362 -0.26181903 1.4860001 2.3399964e-38
-0.24200574 -0.26181903 1.4860001 2.3400312e-38
-0.23917525 -0.26181903 1.4860001 2.3401029e-38
-0.23634477 -0.26181903 1.4860001 2.340067e-38
-0.23351428 -0.26181903 1.4860001 2.3400671e-38
-0.22785333 -0.26181903 1.4860001 2.340068e-38
-0.22502287 -0.26181903 1.4860001 2.3400328e-38
-0.21936192 -0.26181903 1.4860001 2.3401383e-38
-0.21653143 -0.26181903 1.4860001 2.3401379e-38
-0.21087047 -0.26181903 1.4860001 2.3401376e-38
-0.20804001 -0.26181903 1.4860001 2.3401017e-38
-0.20520952 -0.26181903 1.4860001 2.3401023e-38
-0.20237906 -0.26181903 1.4860001 2.3400671e-38
-0.19954857 -0.26181903 1.4860001 2.3400312e-38
-0.19671811 -0.26181903 1.4860001 2.3400673e-38
-0.19388762 -0.26181903 1.4860001 2.3401024e-38
-0.19105716 -0.26181903 1.4860001 2.3401019e-38
-0.18822667 -0.26181903 1.4860001 2.3400308e-38
-0.18539621 -0.26181903 1.4860001 2.3399599e-38
-0.18256572 -0.26181903 1.4860001 2.3401743e-38
-0.17973526 -0.26181903 1.4860001 2.3401377e-38
-0.17690475 -0.26181903 1.4860001 2.3401022e-38
-0.17407429 -0.26181903 1.4860001 2.3401024e-38
-0.1712438 -0.26181903 1.4860001 2.3401383e-38
-0.16841334 -0.26181903 1.4860001 2.3401024e-38
-0.16558285 -0.26181903 1.4860001 2.3400666e-38
-0.16275239 -0.26181903 1.4860001 2.3401026e-38
-0.1599219 -0.26181903 1.4860001 2.3401383e-38
-0.15709144 -0.26181903 1.4860001 2.3401382e-38
-0.15363809 -0.26076192 1.48 2.3401386e-38
-0.15081905 -0.26076192 1.48 2.3401031e-38
-0.148 -0.26076192 1.48 2.3401029e-38
-0.14576954 -0.26181903 1.4860001 2.3400668e-38
-0.14293905 -0.26181903 1.4860001 2.340104e-38
-0.14010859 -0.26181903 1.4860001 2.3401052e-38
-0.13727809 -0.26181903 1.4860001 2.3401391e-38
-0.13444763 -0.26181903 1.4860001 2.3401373e-38
-0.12312572 -0.26181903 1.4860001 2.3401739e-38
-0.12029524 -0.26181903 1.4860001 2.3402106e-38
-0.11746477 -0.26181903 1.4860001 2.3401756e-38
-0.11463429 -0.26181903 1.4860001 2.3401391e-38
-0.11180381 -0.26181903 1.4860001 2.340067e-38
-0.10897334 -0.26181903 1.4860001 2.3400673e-38
-0.10614286 -0.26181903 1.4860001 2.3401036e-38
-0.10331238 -0.26181903 1.4860001 2.3401383e-38
-0.10048191 -0.26181903 1.4860001 2.3401015e-38
-0.097651429 -0.26181903 1.4860001 2.340066e-38
-0.094820954 -0.26181903 1.4860001 2.340174e-38
-0.091990478 -0.26181903 1.4860001 2.3402099e-38
-0.089160003 -0.26181903 1.4860001 2.3401382e-38
-0.086329527 -0.26181903 1.4860001 2.3401023e-38
-0.083161905 -0.26076192 1.48 2.3400666e-38
-0.080342859 -0.26076192 1.48 2.3400667e-38
-0.0778381 -0.26181903 1.4860001 2.3401027e-38
-0.075007625 -0.26181903 1.4860001 2.3401397e-38
-0.072177142 -0.26181903 1.4860001 2.3401408e-38
-0.069346666 -0.26181903 1.4860001 2.3401393e-38
-0.066516191 -0.26181903 1.4860001 2.3401379e-38
-0.063685715 -0.26181903 1.4860001 2.3401735e-38
-0.06085524 -0.26181903 1.4860001 2.3401732e-38
-0.058024764 -0.26181903 1.4860001 2.3401733e-38
-0.055194288 -0.26181903 1.4860001 2.3402095e-38
-0.052363813 -0.26181903 1.4860001 2.3402096e-38
-0.049533334 -0.26181903 1.4860001 2.3402098e-38
-0.046702858 -0.26181903 1.4860001 2.340244e-38
-0.043872382 -0.26181903 1.4860001 2.3402066e-38
-0.041041907 -0.26181903 1.4860001 2.3402085e-38
-0.038211431 -0.26181903 1.4860001 2.3402105e-38
-0.035380952 -0.26181903 1.4860001 2.3402465e-38
-0.032550476 -0.26181903 1.4860001 2.3402466e-38
-0.029720001 -0.26181903 1.4860001 2.3402468e-38
-0.026889525 -0.26181903 1.4860001 2.3310635e-38
-0.024059048 -0.26181903 1.4860001 2.331099e-38
-0.021228572 -0.26181903 1.4860001 2.3310268e-38
-0.018398095 -0.26181903 1.4860001 2.3401747e-38
-0.015567619 -0.26181903 1.4860001 2.340175e-38
-0.012737143 -0.26181903 1.4860001 2.3401746e-38
-0.0099066673 -0.26181903 1.4860001 2.3401743e-38
0.009866667 -0.26076192 1.48 2.3403178e-38
0.012685714 -0.26076192 1.48 2.3403178e-38
0.05497143 -0.26076192 1.48 2.3403184e-38
0.057790477 -0.26076192 1.48 2.3402101e-38
0.060609523 -0.26076192 1.48 2.3402109e-38
0.063428566 -0.26076192 1.48 2.3402477e-38
0.06624762 -0.26076192 1.48 2.3403182e-38
0.069066674 -0.26076192 1.48 2.3402812e-38
0.07188572 -0.26076192 1.48 2.3402458e-38
0.074704766 -0.26076192 1.48 2.3402462e-38
0.077523813 -0.26076192 1.48 2.3403192e-38
-0.75705814 -0.22674574 1.3010001 1.6857387e-38
-0.75748003 -0.22761716 1.3060001 1.6676936e-38
-0.75499243 -0.22761716 1.3060001 1.7047857e-38
-0.75250483 -0.22761716 1.3060001 1.7408338e-38
-0.75288862 -0.22848859 1.3110001 1.1432171e-38
-0.75039148 -0.22848859 1.3110001 5.5324412e-39
-0.74789435 -0.22848859 1.3110001 2.847311e-39
-0.74824005 -0.22936001 1.3160001 1.841124e-40
-0.73415333 -0.24034001 1.3790001 7.9136691e-39
-0.73470956 -0.24138573 1.3850001 8.1902504e-39
-0.73207146 -0.24138573 1.3850001 8.2842369e-39
-0.72943342 -0.24138573 1.3850001 8.468261e-39
-0.72679532 -0.24138573 1.3850001 8.5600909e-39
-0.72415715 -0.24138573 1.3850001 8.7426969e-39
-0.67477435 -0.25149429 1.4430001 8.9084061e-39
-0.67202574 -0.25149429 1.4430001 9.2112491e-39
-0.41918099 -0.26003429 1.4920001 2.3398146e-38
-0.41633907 -0.26003429 1.4920001 2.3398143e-38
-0.41349715 -0.26003429 1.4920001 2.3306665e-38
-0.41065526 -0.26003429 1.4920001 2.3306669e-38
-0.40781337 -0.26003429 1.4920001 2.3214838e-38
-0.40497145 -0.26003429 1.4920001 2.3122989e-38
-0.40212953 -0.26003429 1.4920001 2.3215169e-38
-0.39928764 -0.26003429 1.4920001 2.3398139e-38
-0.21936192 -0.25898859 1.4860001 2.340174e-38
-0.21653143 -0.25898859 1.4860001 2.3401739e-38
-0.21087047 -0.25898859 1.4860001 2.3402096e-38
-0.20804001 -0.25898859 1.4860001 2.3402098e-38
-0.20520952 -0.25898859 1.4860001 2.3401026e-38
-0.20237906 -0.25898859 1.4860001 2.3401389e-38
-0.19954857 -0.25898859 1.4860001 2.3399955e-38
-0.19671811 -0.25898859 1.4860001 2.3400674e-38
-0.19388762 -0.25898859 1.4860001 2.3401022e-38
-0.19105716 -0.25898859 1.4860001 2.340101e-38
-0.18822667 -0.25898859 1.4860001 2.3400667e-38
-0.18539621 -0.25898859 1.4860001 2.3399249e-38
-0.18256572 -0.25898859 1.4860001 2.3401029e-38
-0.17973526 -0.25898859 1.4860001 2.3401732e-38
-0.17690475 -0.25898859 1.4860001 2.3401736e-38
-0.17407429 -0.25898859 1.4860001 2.340174e-38
-0.1712438 -0.25898859 1.4860001 2.3401384e-38
-0.16558285 -0.25898859 1.4860001 2.3401386e-38
-0.16275239 -0.25898859 1.4860001 2.3401384e-38
-0.1599219 -0.25898859 1.4860001 2.340138e-38
-0.15709144 -0.25898859 1.4860001 2.3401735e-38
-0.15426095 -0.25898859 1.4860001 2.3401743e-38
-0.15143049 -0.25898859 1.4860001 2.3401753e-38
-0.1486 -0.25898859 1.4860001 2.340103e-38
-0.14576954 -0.25898859 1.4860001 2.3400666e-38
-0.14293905 -0.25898859 1.4860001 2.3400671e-38
-0.14010859 -0.25898859 1.4860001 2.3401036e-38
-0.13727809 -0.25898859 1.4860001 2.3401019e-38
-0.13444763 -0.25898859 1.4860001 2.3401002e-38
-0.13161714 -0.25898859 1.4860001 2.3401368e-38
-0.12878668 -0.25898859 1.4860001 2.3401733e-38
-0.11746477 -0.25898859 1.4860001 2.340211e-38
-0.11463429 -0.25898859 1.4860001 2.3401391e-38
-0.11180381 -0.25898859 1.4860001 2.3401031e-38
-0.10897334 -0.25898859 1.4860001 2.3400673e-38
-0.10614286 -0.25898859 1.4860001 2.3401389e-38
-0.10331238 -0.25898859 1.4860001 2.3401383e-38
-0.10048191 -0.25898859 1.4860001 2.3401019e-38
-0.097651429 -0.25898859 1.4860001 2.3401022e-38
-0.094820954 -0.25898859 1.4860001 2.3401743e-38
-0.091990478 -0.25898859 1.4860001 2.3402101e-38
-0.089160003 -0.25898859 1.4860001 2.3401383e-38
-0.086329527 -0.25898859 1.4860001 2.3401027e-38
-0.083161905 -0.25794286 1.48 2.340103e-38
-0.080342859 -0.25794286 1.48 2.3401387e-38
-0.077523813 -0.25794286 1.48 2.3401745e-38
-0.075007625 -0.25898859 1.4860001 2.3401391e-38
-0.072177142 -0.25898859 1.4860001 2.3401398e-38
-0.069346666 -0.25898859 1.4860001 2.3401389e-38
-0.066516191 -0.25898859 1.4860001 2.340138e-38
-0.063685715 -0.25898859 1.4860001 2.3401377e-38
-0.06085524 -0.25898859 1.4860001 2.3401733e-38
-0.058024764 -0.25898859 1.4860001 2.3401731e-38
-0.055194288 -0.25898859 1.4860001 2.3402088e-38
-0.052363813 -0.25898859 1.4860001 2.3402099e-38
-0.049533334 -0.25898859 1.4860001 2.3402469e-38
-0.046702858 -0.25898859 1.4860001 2.340317e-38
-0.043872382 -0.25898859 1.4860001 2.340387e-38
-0.041041907 -0.25898859 1.4860001 2.3402448e-38
-0.038211431 -0.25898859 1.4860001 2.3402461e-38
-0.035380952 -0.25898859 1.4860001 2.3402459e-38
-0.032550476 -0.25898859 1.4860001 2.3402458e-38
-0.029720001 -0.25898859 1.4860001 2.3402828e-38
-0.026889525 -0.25898859 1.4860001 2.3311364e-38
-0.021228572 -0.25898859 1.4860001 2.3310984e-38
-0.018398095 -0.25898859 1.4860001 2.3402815e-38
-0.015567619 -0.25898859 1.4860001 2.3402812e-38
-0.012737143 -0.25898859 1.4860001 2.3402455e-38
-0.0099066673 -0.25898859 1.4860001 2.3402099e-38
-0.0070761908 -0.25898859 1.4860001 2.3402099e-38
-0.0042457143 -0.25898859 1.4860001 2.3402099e-38
-0.0014152381 -0.25898859 1.4860001 2.3402822e-38
0.0014152381 -0.25898859 1.4860001 2.3403187e-38
0.0042457143 -0.25898859 1.4860001 2.3403184e-38
0.0070761908 -0.25898859 1.4860001 2.3403181e-38
0.0099066673 -0.25898859 1.4860001 2.3403182e-38
0.012737143 -0.25898859 1.4860001 2.3403901e-38
0.015567619 -0.25898859 1.4860001 2.3403177e-38
0.018398095 -0.25898859 1.4860001 2.3403171e-38
0.021228572 -0.25898859 1.4860001 2.3403166e-38
0.024059048 -0.25898859 1.4860001 2.340316e-38
0.041041907 -0.25898859 1.4860001 2.3402833e-38
0.043872382 -0.25898859 1.4860001 2.3402821e-38
0.046702858 -0.25898859 1.4860001 2.3402808e-38
0.049533334 -0.25898859 1.4860001 2.3402458e-38
0.052363813 -0.25898859 1.4860001 2.3402108e-38
0.055194288 -0.25898859 1.4860001 2.3402103e-38
0.058024764 -0.25898859 1.4860001 2.3402099e-38
0.060609523 -0.25794286 1.48 2.3402105e-38
0.063428566 -0.25794286 1.48 2.3401394e-38
0.069066674 -0.25794286 1.48 2.3403166e-38
0.07188572 -0.25794286 1.48 2.3402452e-38
-0.75996768 -0.22512954 1.3060001 1.2887647e-38
-0.75748003 -0.22512954 1.3060001 1.6203024e-38
-0.75499243 -0.22512954 1.3060001 1.7048529e-38
-0.75250483 -0.22512954 1.3060001 1.7863164e-38
-0.75288862 -0.22599144 1.3110001 1.1975962e-38
-0.75039148 -0.22599144 1.3110001 6.0615211e-39
-0.75074673 -0.22685334 1.3160001 3.67378e-39
-0.73415333 -0.23771334 1.3790001 8.098052e-39
-0.73470956 -0.23874763 1.3850001 8.1902448e-39
-0.73207146 -0.23874763 1.3850001 8.3753507e-39
-0.73206669 -0.23960954 1.3900001 8.5600853e-39
-0.72941911 -0.23960954 1.3900001 8.6519096e-39
-0.72677147 -0.23960954 1.3900001 8.741971e-39
-0.7272495 -0.24064381 1.396 8.5576036e-39
-0.72459048 -0.24064381 1.396 8.3671097e-39
-0.68027145 -0.24874572 1.4430001 1.556762e-38
-0.6775229 -0.24874572 1.4430001 1.1032133e-38
-0.67477435 -0.24874572 1.4430001 9.6430872e-39
-0.66923141 -0.24771143 1.437 8.2817636e-39
-0.41918099 -0.2571924 1.4920001 2.3306309e-38
-0.41633907 -0.2571924 1.4920001 2.3306667e-38
-0.41349715 -0.2571924 1.4920001 2.3307024e-38
-0.41065526 -0.2571924 1.4920001 2.3307747e-38
-0.40781337 -0.2571924 1.4920001 2.32152e-38
-0.40497145 -0.2571924 1.4920001 2.3213738e-38
-0.40212953 -0.2571924 1.4920001 2.3306624e-38
-0.39928764 -0.2571924 1.4920001 2.3398484e-38
-0.31971431 -0.2571924 1.4920001 2.339957e-38
-0.31687242 -0.2571924 1.4920001 2.3399578e-38
-0.3140305 -0.2571924 1.4920001 2.3400297e-38
-0.31118858 -0.2571924 1.4920001 2.3399581e-38
-0.30834666 -0.2571924 1.4920001 2.3399215e-38
-0.3055048 -0.2571924 1.4920001 2.339885e-38
-0.30266288 -0.2571924 1.4920001 2.3398854e-38
-0.29982096 -0.2571924 1.4920001 2.3399218e-38
-0.29697907 -0.2571924 1.4920001 2.339994e-38
-0.29413715 -0.2571924 1.4920001 2.3399585e-38
-0.29129526 -0.2571924 1.4920001 2.3398512e-38
-0.28845334 -0.2571924 1.4920001 2.3398875e-38
-0.28561145 -0.2571924 1.4920001 2.3399584e-38
-0.28276953 -0.2571924 1.4920001 2.3399575e-38
-0.27992764 -0.2571924 1.4920001 2.3399582e-38
-0.27708575 -0.2571924 1.4920001 2.3399591e-38
-0.27424383 -0.2571924 1.4920001 2.3399231e-38
-0.27140191 -0.2571924 1.4920001 2.3399588e-38
-0.26855999 -0.2571924 1.4920001 2.3400308e-38
-0.26571813 -0.2571924 1.4920001 2.3400311e-38
-0.26287621 -0.2571924 1.4920001 2.3400304e-38
-0.20804001 -0.25615808 1.4860001 2.3401026e-38
-0.20520952 -0.25615808 1.4860001 2.3401029e-38
-0.20237906 -0.25615808 1.4860001 2.3400314e-38
-0.19954857 -0.25615808 1.4860001 2.3399957e-38
-0.19671811 -0.25615808 1.4860001 2.3400677e-38
-0.19388762 -0.25615808 1.4860001 2.3401019e-38
-0.19105716 -0.25615808 1.4860001 2.3401002e-38
-0.18822667 -0.25615808 1.4860001 2.3401386e-38
-0.18539621 -0.25615808 1.4860001 2.3400335e-38
-0.18256572 -0.25615808 1.4860001 2.3400314e-38
-0.17973526 -0.25615808 1.4860001 2.340137e-38
-0.17690475 -0.25615808 1.4860001 2.3401376e-38
-0.17407429 -0.25615808 1.4860001 2.3401382e-38
-0.1712438 -0.25615808 1.4860001 2.3401387e-38
-0.16841334 -0.25615808 1.4860001 2.3401393e-38
-0.16558285 -0.25615808 1.4860001 2.3401389e-38
-0.16275239 -0.25615808 1.4860001 2.3401386e-38
-0.1599219 -0.25615808 1.4860001 2.3401377e-38
-0.15709144 -0.25615808 1.4860001 2.340137e-38
-0.15426095 -0.25615808 1.4860001 2.3401026e-38
-0.15143049 -0.25615808 1.4860001 2.3401041e-38
-0.1486 -0.25615808 1.4860001 2.340139e-38
-0.14576954 -0.25615808 1.4860001 2.3400664e-38
-0.14293905 -0.25615808 1.4860001 2.3400663e-38
-0.14010859 -0.25615808 1.4860001 2.340102e-38
-0.13727809 -0.25615808 1.4860001 2.3400287e-38
-0.13444763 -0.25615808 1.4860001 2.3400989e-38
-0.13161714 -0.25615808 1.4860001 2.3401361e-38
-0.10897334 -0.25615808 1.4860001 2.3400671e-38
-0.10614286 -0.25615808 1.4860001 2.3401026e-38
-0.10331238 -0.25615808 1.4860001 2.3401742e-38
-0.10048191 -0.25615808 1.4860001 2.3401023e-38
-0.097651429 -0.25615808 1.4860001 2.3401384e-38
-0.094820954 -0.25615808 1.4860001 2.3401387e-38
-0.091990478 -0.25615808 1.4860001 2.3402103e-38
-0.089160003 -0.25615808 1.4860001 2.3402103e-38
-0.086329527 -0.25615808 1.4860001 2.3402466e-38
-0.083161905 -0.25512382 1.48 2.3402112e-38
-0.080342859 -0.25512382 1.48 2.3402108e-38
-0.077523813 -0.25512382 1.48 2.3402105e-38
-0.075007625 -0.25615808 1.4860001 2.3402105e-38
-0.072177142 -0.25615808 1.4860001 2.3401747e-38
-0.069346666 -0.25615808 1.4860001 2.3401745e-38
-0.066516191 -0.25615808 1.4860001 2.3401383e-38
-0.063685715 -0.25615808 1.4860001 2.340102e-38
-0.06085524 -0.25615808 1.4860001 2.3401376e-38
-0.058024764 -0.25615808 1.4860001 2.3402088e-38
-0.055194288 -0.25615808 1.4860001 2.3401724e-38
-0.052363813 -0.25615808 1.4860001 2.3401743e-38
-0.049533334 -0.25615808 1.4860001 2.3402123e-38
-0.046702858 -0.25615808 1.4860001 2.3400671e-38
-0.043872382 -0.25615808 1.4860001 2.3403166e-38
-0.041041907 -0.25615808 1.4860001 2.3403171e-38
-0.038211431 -0.25615808 1.4860001 2.3402818e-38
-0.035380952 -0.25615808 1.4860001 2.3402814e-38
-0.032550476 -0.25615808 1.4860001 2.340281e-38
-0.026889525 -0.25615808 1.4860001 2.3311375e-38
-0.021228572 -0.25615808 1.4860001 2.3310983e-38
-0.018398095 -0.25615808 1.4860001 2.3403167e-38
-0.015567619 -0.25615808 1.4860001 2.3310963e-38
-0.012737143 -0.25615808 1.4860001 2.3310971e-38
-0.0099066673 -0.25615808 1.4860001 2.3310621e-38
-0.0070761908 -0.25615808 1.4860001 2.3402459e-38
-0.0042457143 -0.25615808 1.4860001 2.3402821e-38
-0.0014152381 -0.25615808 1.4860001 2.3403184e-38
0.0014152381 -0.25615808 1.4860001 2.3403189e-38
0.0042457143 -0.25615808 1.4860001 2.3403185e-38
0.0070761908 -0.25615808 1.4860001 2.3311347e-38
0.0099066673 -0.25615808 1.4860001 2.331171e-38
0.012737143 -0.25615808 1.4860001 2.3311355e-38
0.015567619 -0.25615808 1.4860001 2.3403182e-38
0.018398095 -0.25615808 1.4860001 2.3403175e-38
0.021228572 -0.25615808 1.4860001 2.3403171e-38
0.024059048 -0.25615808 1.4860001 2.340281e-38
0.043872382 -0.25615808 1.4860001 2.3402812e-38
0.046702858 -0.25615808 1.4860001 2.3402445e-38
0.052363813 -0.25615808 1.4860001 2.3401742e-38
0.055194288 -0.25615808 1.4860001 2.3401382e-38
0.058024764 -0.25615808 1.4860001 2.3402458e-38
0.06085524 -0.25615808 1.4860001 2.3402819e-38
0.063685715 -0.25615808 1.4860001 2.3402822e-38
0.06624762 -0.25512382 1.48 2.3402811e-38
0.069066674 -0.25512382 1.48 2.3402801e-38
0.07188572 -0.25512382 1.48 2.3402805e-38
0.075007625 -0.25615808 1.4860001 2.3402451e-38
0.0778381 -0.25615808 1.4860001 2.3402099e-38
0.080668576 -0.25615808 1.4860001 2.3402466e-38
0.083499052 -0.25615808 1.4860001 2.3402822e-38
-0.75996768 -0.22264192 1.3060001 9.0240524e-39
-0.75748003 -0.22264192 1.3060001 1.5840693e-38
-0.75499243 -0.22264192 1.3060001 1.7141463e-38
-0.75250483 -0.22264192 1.3060001 1.8420662e-38
-0.75288862 -0.22349431 1.3110001 1.2520191e-38
-0.75039148 -0.22349431 1.3110001 6.6172144e-39
-0.75074673 -0.22434668 1.3160001 4.5002994e-39
-0.73470956 -0.23610954 1.3850001 8.2831593e-39
-0.73207146 -0.23610954 1.3850001 8.4668331e-39
-0.73206669 -0.23696192 1.3900001 8.6522851e-39
-0.72941911 -0.23696192 1.3900001 8.744108e-39
-0.72990853 -0.23798476 1.396 8.8348827e-39
-0.7272495 -0.23798476 1.396 8.6497936e-39
-0.72459048 -0.23798476 1.396 8.4689869e-39
-0.72193146 -0.23798476 1.396 1.0217084e-38
-0.6775229 -0.24599716 1.4430001 1.3522096e-38
-0.67196858 -0.24497427 1.437 1.0469607e-38
-0.66923141 -0.24497427 1.437 7.457021e-39
-0.66649431 -0.24497427 1.437 1.308307e-38
-0.31971431 -0.25435048 1.4920001 2.3399577e-38
-0.31687242 -0.25435048 1.4920001 2.3399941e-38
-0.3140305 -0.25435048 1.4920001 2.3399941e-38
-0.31118858 -0.25435048 1.4920001 2.3399943e-38
-0.30834666 -0.25435048 1.4920001 2.3399938e-38
-0.3055048 -0.25435048 1.4920001 2.3399934e-38
-0.30266288 -0.25435048 1.4920001 2.339958e-38
-0.29982096 -0.25435048 1.4920001 2.3399584e-38
-0.29697907 -0.25435048 1.4920001 2.3399944e-38
-0.29413715 -0.25435048 1.4920001 2.3399947e-38
-0.29129526 -0.25435048 1.4920001 2.3400311e-38
-0.28845334 -0.25435048 1.4920001 2.3401034e-38
-0.28561145 -0.25435048 1.4920001 2.3400667e-38
-0.28276953 -0.25435048 1.4920001 2.34003e-38
-0.27992764 -0.25435048 1.4920001 2.3399945e-38
-0.27708575 -0.25435048 1.4920001 2.3399592e-38
-0.27424383 -0.25435048 1.4920001 2.3399591e-38
-0.27140191 -0.25435048 1.4920001 2.3399948e-38
-0.26855999 -0.25435048 1.4920001 2.3400312e-38
-0.23445717 -0.25435048 1.4920001 2.3399952e-38
-0.23161525 -0.25435048 1.4920001 2.3401027e-38
-0.22877336 -0.25435048 1.4920001 2.3400664e-38
-0.22593144 -0.25435048 1.4920001 2.340066e-38
-0.22308955 -0.25435048 1.4920001 2.3401022e-38
-0.22024763 -0.25435048 1.4920001 2.3309548e-38
-0.21740572 -0.25435048 1.4920001 2.3218072e-38
-0.21456383 -0.25435048 1.4920001 2.3309193e-38
-0.21172191 -0.25435048 1.4920001 2.3400673e-38
-0.20888002 -0.25435048 1.4920001 2.3399242e-38
-0.20520952 -0.25332764 1.4860001 2.3399955e-38
-0.20319621 -0.25435048 1.4920001 2.3399952e-38
-0.19954857 -0.25332764 1.4860001 2.3400314e-38
-0.19751239 -0.25435048 1.4920001 2.3400674e-38
-0.19467048 -0.25435048 1.4920001 2.3400663e-38
-0.19105716 -0.25332764 1.4860001 2.3400652e-38
-0.18822667 -0.25332764 1.4860001 2.3400307e-38
-0.18614477 -0.25435048 1.4920001 2.3400321e-38
-0.17407429 -0.25332764 1.4860001 2.3400311e-38
-0.16841334 -0.25332764 1.4860001 2.34014e-38
-0.16558285 -0.25332764 1.4860001 2.340139e-38
-0.1599219 -0.25332764 1.4860001 2.3401379e-38
-0.15426095 -0.25332764 1.4860001 2.3401027e-38
-0.15143049 -0.25332764 1.4860001 2.3401036e-38
-0.14293905 -0.25332764 1.4860001 2.3401016e-38
-0.14010859 -0.25332764 1.4860001 2.3401023e-38
-0.13727809 -0.25332764 1.4860001 2.3401013e-38
-0.13444763 -0.25332764 1.4860001 2.3401003e-38
-0.13161714 -0.25332764 1.4860001 2.3401012e-38
-0.10614286 -0.25332764 1.4860001 2.3401024e-38
-0.10048191 -0.25332764 1.4860001 2.340101e-38
-0.097651429 -0.25332764 1.4860001 2.3401022e-38
-0.094820954 -0.25332764 1.4860001 2.3401033e-38
-0.091990478 -0.25332764 1.4860001 2.3401747e-38
-0.089160003 -0.25332764 1.4860001 2.3402103e-38
-0.086329527 -0.25332764 1.4860001 2.3402102e-38
-0.083499052 -0.25332764 1.4860001 2.3402102e-38
-0.080668576 -0.25332764 1.4860001 2.3401743e-38
-0.0778381 -0.25332764 1.4860001 2.3403178e-38
-0.075007625 -0.25332764 1.4860001 2.3402459e-38
-0.072177142 -0.25332764 1.4860001 2.3402458e-38
-0.069346666 -0.25332764 1.4860001 2.3402095e-38
-0.066516191 -0.25332764 1.4860001 2.3402089e-38
-0.063685715 -0.25332764 1.4860001 2.3401375e-38
-0.06085524 -0.25332764 1.4860001 2.3401377e-38
-0.049533334 -0.25332764 1.4860001 2.3401754e-38
-0.046702858 -0.25332764 1.4860001 2.3402101e-38
-0.043872382 -0.25332764 1.4860001 2.3402805e-38
-0.041041907 -0.25332764 1.4860001 2.3402811e-38
-0.038211431 -0.25332764 1.4860001 2.3403177e-38
-0.021228572 -0.25332764 1.4860001 2.3402461e-38
-0.018398095 -0.25332764 1.4860001 2.3402818e-38
-0.015567619 -0.25332764 1.4860001 2.3310262e-38
-0.012737143 -0.25332764 1.4860001 2.331098e-38
-0.0099066673 -0.25332764 1.4860001 2.3311338e-38
-0.0070761908 -0.25332764 1.4860001 2.3403178e-38
-0.0042457143 -0.25332764 1.4860001 2.3403181e-38
-0.0014152381 -0.25332764 1.4860001 2.3403187e-38
0.0014152381 -0.25332764 1.4860001 2.3403192e-38
0.0042457143 -0.25332764 1.4860001 2.3403187e-38
0.0070761908 -0.25332764 1.4860001 2.3311347e-38
0.0099066673 -0.25332764 1.4860001 2.3310985e-38
0.012737143 -0.25332764 1.4860001 2.3310983e-38
0.015567619 -0.25332764 1.4860001 2.3402818e-38
0.018398095 -0.25332764 1.4860001 2.3403177e-38
0.021228572 -0.25332764 1.4860001 2.3402815e-38
0.024059048 -0.25332764 1.4860001 2.3402812e-38
0.058024764 -0.25332764 1.4860001 2.3403178e-38
0.06085524 -0.25332764 1.4860001 2.3402466e-38
0.063685715 -0.25332764 1.4860001 2.3403908e-38
0.066516191 -0.25332764 1.4860001 2.3402459e-38
0.069346666 -0.25332764 1.4860001 2.3402088e-38
0.072177142 -0.25332764 1.4860001 2.3402449e-38
0.075007625 -0.25332764 1.4860001 2.3402452e-38
0.0778381 -0.25332764 1.4860001 2.3402096e-38
0.080668576 -0.25332764 1.4860001 2.3402099e-38
0.083499052 -0.25332764 1.4860001 2.3402818e-38
-0.75996768 -0.2201543 1.3060001 8.8381842e-39
-0.75748003 -0.2201543 1.3060001 1.5203214e-38
-0.75499243 -0.2201543 1.3060001 1.72283e-38
-0.75250483 -0.2201543 1.3060001 1.9253667e-38
-0.75001723 -0.2201543 1.3060001 1.3906365e-38
-0.75039148 -0.22099715 1.3110001 8.5507975e-39
-0.74789435 -0.22099715 1.3110001 5.7859964e-39
-0.73410857 -0.23161715 1.3740001 8.4668261e-39
-0.73415333 -0.23246001 1.3790001 8.283518e-39
-0.73152667 -0.23246001 1.3790001 8.1916867e-39
-0.72890002 -0.23246001 1.3790001 8.3750032e-39
-0.72943342 -0.23347144 1.3850001 8.4693358e-39
-0.72941911 -0.23431429 1.3900001 8.4686057e-39
-0.72990853 -0.23532572 1.396 8.3767829e-39
-0.7272495 -0.23532572 1.396 8.5593903e-39
-0.72459048 -0.23532572 1.396 8.7423382e-39
-0.72193146 -0.23532572 1.396 9.8468711e-39
-0.6775229 -0.24324858 1.4430001 1.4818556e-38
-0.67477435 -0.24324858 1.4430001 1.0928784e-38
-0.66923141 -0.24223714 1.437 7.0918146e-39
-0.66649431 -0.24223714 1.437 1.2523773e-38
-0.66375715 -0.24223714 1.437 1.7871803e-38
-0.31687242 -0.25150859 1.4920001 2.3398871e-38
-0.3140305 -0.25150859 1.4920001 2.3399228e-38
-0.31118858 -0.25150859 1.4920001 2.3399228e-38
-0.30834666 -0.25150859 1.4920001 2.3399585e-38
-0.3055048 -0.25150859 1.4920001 2.3399585e-38
-0.30266288 -0.25150859 1.4920001 2.3399588e-38
-0.29982096 -0.25150859 1.4920001 2.3399591e-38
-0.29697907 -0.25150859 1.4920001 2.339995e-38
-0.29413715 -0.25150859 1.4920001 2.339995e-38
-0.29129526 -0.25150859 1.4920001 2.3400674e-38
-0.28845334 -0.25150859 1.4920001 2.3400682e-38
-0.28561145 -0.25150859 1.4920001 2.3401033e-38
-0.28276953 -0.25150859 1.4920001 2.3400308e-38
-0.27992764 -0.25150859 1.4920001 2.340031e-38
-0.27708575 -0.25150859 1.4920001 2.3399952e-38
-0.27424383 -0.25150859 1.4920001 2.3400668e-38
-0.27140191 -0.25150859 1.4920001 2.3400668e-38
-0.26855999 -0.25150859 1.4920001 2.3400675e-38
-0.26571813 -0.25150859 1.4920001 2.3400325e-38
-0.24014096 -0.25150859 1.4920001 2.3401023e-38
-0.23445717 -0.25150859 1.4920001 2.3400304e-38
-0.23161525 -0.25150859 1.4920001 2.340031e-38
-0.22877336 -0.25150859 1.4920001 2.3400673e-38
-0.22593144 -0.25150859 1.4920001 2.3400678e-38
-0.22308955 -0.25150859 1.4920001 2.3401031e-38
-0.22024763 -0.25150859 1.4920001 2.3309192e-38
-0.21740572 -0.25150859 1.4920001 2.3309912e-38
-0.21456383 -0.25150859 1.4920001 2.3309197e-38
-0.21172191 -0.25150859 1.4920001 2.340068e-38
-0.20888002 -0.25150859 1.4920001 2.3400328e-38
-0.20520952 -0.25049713 1.4860001 2.3400318e-38
-0.20319621 -0.25150859 1.4920001 2.340031e-38
-0.19954857 -0.25049713 1.4860001 2.340067e-38
-0.19671811 -0.25049713 1.4860001 2.3400314e-38
-0.19467048 -0.25150859 1.4920001 2.3399948e-38
-0.19182858 -0.25150859 1.4920001 2.340066e-38
-0.18898669 -0.25150859 1.4920001 2.3400663e-38
-0.18614477 -0.25150859 1.4920001 2.3400667e-38
-0.18330288 -0.25150859 1.4920001 2.3401023e-38
-0.18046096 -0.25150859 1.4920001 2.340102e-38
-0.17761905 -0.25150859 1.4920001 2.3401386e-38
-0.17477715 -0.25150859 1.4920001 2.3401034e-38
-0.17193525 -0.25150859 1.4920001 2.3401041e-38
-0.16909336 -0.25150859 1.4920001 2.3401407e-38
-0.16625144 -0.25150859 1.4920001 2.3401391e-38
-0.16340953 -0.25150859 1.4920001 2.3401736e-38
-0.1599219 -0.25049713 1.4860001 2.3403533e-38
-0.15772572 -0.25150859 1.4920001 2.3401384e-38
-0.15488382 -0.25150859 1.4920001 2.340067e-38
-0.15143049 -0.25049713 1.4860001 2.3401031e-38
-0.14920001 -0.25150859 1.4920001 2.3401015e-38
-0.1463581 -0.25150859 1.4920001 2.3400998e-38
-0.14293905 -0.25049713 1.4860001 2.3401012e-38
-0.14010859 -0.25049713 1.4860001 2.3401026e-38
-0.13444763 -0.25049713 1.4860001 2.3401017e-38
-0.13161714 -0.25049713 1.4860001 2.3401022e-38
-0.12930667 -0.25150859 1.4920001 2.3401026e-38
-0.12646477 -0.25150859 1.4920001 2.340104e-38
-0.12362287 -0.25150859 1.4920001 2.3401414e-38
-0.12078096 -0.25150859 1.4920001 2.340284e-38
-0.11793905 -0.25150859 1.4920001 2.3401397e-38
-0.11509714 -0.25150859 1.4920001 2.3400688e-38
-0.097651429 -0.25049713 1.4860001 2.3401017e-38
-0.094820954 -0.25049713 1.4860001 2.3401038e-38
-0.091990478 -0.25049713 1.4860001 2.3401391e-38
-0.089160003 -0.25049713 1.4860001 2.3401027e-38
-0.086329527 -0.25049713 1.4860001 2.3401022e-38
-0.083499052 -0.25049713 1.4860001 2.3401016e-38
-0.080668576 -0.25049713 1.4860001 2.3401377e-38
-0.0778381 -0.25049713 1.4860001 2.3402099e-38
-0.075007625 -0.25049713 1.4860001 2.3402814e-38
-0.072177142 -0.25049713 1.4860001 2.3402452e-38
-0.069346666 -0.25049713 1.4860001 2.3402445e-38
-0.066516191 -0.25049713 1.4860001 2.340208e-38
-0.063685715 -0.25049713 1.4860001 2.3401729e-38
-0.015567619 -0.25049713 1.4860001 2.3311715e-38
-0.012737143 -0.25049713 1.4860001 2.3312066e-38
-0.0099066673 -0.25049713 1.4860001 2.3310981e-38
-0.0070761908 -0.25049713 1.4860001 2.340318e-38
0.058024764 -0.25049713 1.4860001 2.3403182e-38
0.06085524 -0.25049713 1.4860001 2.3402473e-38
0.063685715 -0.25049713 1.4860001 2.3402124e-38
0.066516191 -0.25049713 1.4860001 2.3402109e-38
0.069346666 -0.25049713 1.4860001 2.3402094e-38
0.072177142 -0.25049713 1.4860001 2.3403171e-38
0.075007625 -0.25049713 1.4860001 2.3402814e-38
0.0778381 -0.25049713 1.4860001 2.3402811e-38
0.080668576 -0.25049713 1.4860001 2.340281e-38
-0.76287717 -0.21850002 1.3110001 8.65233e-39
-0.76038003 -0.21850002 1.3110001 1.4555339e-38
-0.75499243 -0.21766669 1.3060001 1.7335224e-38
-0.75250483 -0.21766669 1.3060001 2.0169152e-38
-0.75288862 -0.21850002 1.3110001 1.5384323e-38
-0.75039148 -0.21850002 1.3110001 1.057081e-38
-0.75074673 -0.21933335 1.3160001 7.1635288e-39
-0.7350772 -0.22450002 1.3470001 8.1927363e-39
-0.73410857 -0.229 1.3740001 8.6497712e-39
-0.73415333 -0.22983335 1.3790001 8.3756982e-39
-0.73152667 -0.22983335 1.3790001 8.1916881e-39
-0.72890002 -0.22983335 1.3790001 8.2831831e-39
-0.72943342 -0.23083335 1.3850001 8.3757165e-39
-0.72941911 -0.23166668 1.3900001 8.1931007e-39
-0.72990853 -0.23266667 1.396 8.0094395e-39
-0.7272495 -0.23266667 1.396 8.4686268e-39
-0.72459048 -0.23266667 1.396 9.018202e-39
-0.72193146 -0.23266667 1.396 9.4770179e-39
-0.6775229 -0.2405 1.4430001 1.6205437e-38
-0.67477435 -0.2405 1.4430001 1.1479797e-38
-0.66923141 -0.2395 1.437 6.8141487e-39
-0.66649431 -0.2395 1.437 1.187302e-38
-0.66375715 -0.2395 1.437 1.7040616e-38
-0.31118858 -0.24866667 1.4920001 2.3399224e-38
-0.30834666 -0.24866667 1.4920001 2.3399225e-38
-0.3055048 -0.24866667 1.4920001 2.3399587e-38
-0.30266288 -0.24866667 1.4920001 2.3399592e-38
-0.29982096 -0.24866667 1.4920001 2.3398882e-38
-0.29697907 -0.24866667 1.4920001 2.3399954e-38
-0.29413715 -0.24866667 1.4920001 2.3399948e-38
-0.29129526 -0.24866667 1.4920001 2.3400666e-38
-0.28845334 -0.24866667 1.4920001 2.3400307e-38
-0.28561145 -0.24866667 1.4920001 2.339995e-38
-0.28276953 -0.24866667 1.4920001 2.3399592e-38
-0.27992764 -0.24866667 1.4920001 2.3399592e-38
-0.27708575 -0.24866667 1.4920001 2.3399952e-38
-0.27424383 -0.24866667 1.4920001 2.3399947e-38
-0.27140191 -0.24866667 1.4920001 2.34003e-38
-0.26855999 -0.24866667 1.4920001 2.3400307e-38
-0.26571813 -0.24866667 1.4920001 2.3400312e-38
-0.23445717 -0.24866667 1.4920001 2.3400307e-38
-0.23161525 -0.24866667 1.4920001 2.3400311e-38
-0.22877336 -0.24866667 1.4920001 2.3400314e-38
-0.22593144 -0.24866667 1.4920001 2.3401034e-38
-0.22308955 -0.24866667 1.4920001 2.3400671e-38
-0.22024763 -0.24866667 1.4920001 2.3400667e-38
-0.21740572 -0.24866667 1.4920001 2.340067e-38
-0.21456383 -0.24866667 1.4920001 2.3401031e-38
-0.21172191 -0.24866667 1.4920001 2.3400675e-38
-0.20888002 -0.24866667 1.4920001 2.3401036e-38
-0.20520952 -0.24766669 1.4860001 2.3400671e-38
-0.20319621 -0.24866667 1.4920001 2.3400667e-38
-0.19954857 -0.24766669 1.4860001 2.3400668e-38
-0.19751239 -0.24866667 1.4920001 2.3399954e-38
-0.19467048 -0.24866667 1.4920001 2.3400308e-38
-0.19182858 -0.24866667 1.4920001 2.3400664e-38
-0.18898669 -0.24866667 1.4920001 2.3400664e-38
-0.18614477 -0.24866667 1.4920001 2.3401024e-38
-0.18330288 -0.24866667 1.4920001 2.3400666e-38
-0.18046096 -0.24866667 1.4920001 2.3400666e-38
-0.17761905 -0.24866667 1.4920001 2.3401389e-38
-0.17477715 -0.24866667 1.4920001 2.3401396e-38
-0.17193525 -0.24866667 1.4920001 2.3401398e-38
-0.16909336 -0.24866667 1.4920001 2.340176e-38
-0.16625144 -0.24866667 1.4920001 2.3401396e-38
-0.16340953 -0.24866667 1.4920001 2.3402465e-38
-0.15772572 -0.24866667 1.4920001 2.3401747e-38
-0.15488382 -0.24866667 1.4920001 2.340139e-38
-0.15204191 -0.24866667 1.4920001 2.3401393e-38
-0.14920001 -0.24866667 1.4920001 2.3401024e-38
-0.1463581 -0.24866667 1.4920001 2.3401016e-38
-0.14293905 -0.24766669 1.4860001 2.3401027e-38
-0.14010859 -0.24766669 1.4860001 2.3401397e-38
-0.13727809 -0.24766669 1.4860001 2.3401389e-38
-0.13444763 -0.24766669 1.4860001 2.3400664e-38
-0.13161714 -0.24766669 1.4860001 2.3400664e-38
-0.12930667 -0.24866667 1.4920001 2.3401024e-38
-0.12646477 -0.24866667 1.4920001 2.3401031e-38
-0.12362287 -0.24866667 1.4920001 2.3401397e-38
-0.12078096 -0.24866667 1.4920001 2.3402469e-38
-0.11793905 -0.24866667 1.4920001 2.3402106e-38
-0.11225525 -0.24866667 1.4920001 2.3401044e-38
-0.10941334 -0.24866667 1.4920001 2.3401031e-38
-0.10657144 -0.24866667 1.4920001 2.3401377e-38
-0.10372953 -0.24866667 1.4920001 2.3401372e-38
-0.10088763 -0.24866667 1.4920001 2.3401366e-38
-0.098045722 -0.24866667 1.4920001 2.3401019e-38
-0.094820954 -0.24766669 1.4860001 2.3400311e-38
-0.091990478 -0.24766669 1.4860001 2.3400668e-38
-0.089160003 -0.24766669 1.4860001 2.3400668e-38
-0.086329527 -0.24766669 1.4860001 2.3401024e-38
-0.083499052 -0.24766669 1.4860001 2.3401022e-38
-0.0778381 -0.24766669 1.4860001 2.3401743e-38
-0.075007625 -0.24766669 1.4860001 2.3402099e-38
-0.072177142 -0.24766669 1.4860001 2.3402814e-38
-0.069346666 -0.24766669 1.4860001 2.3402452e-38
-0.066516191 -0.24766669 1.4860001 2.3402091e-38
-0.063942865 -0.24866667 1.4920001 2.3402094e-38
-0.061100956 -0.24866667 1.4920001 2.3402098e-38
-0.058259051 -0.24866667 1.4920001 2.3402096e-38
-0.055417147 -0.24866667 1.4920001 2.3401738e-38
-0.052575238 -0.24866667 1.4920001 2.3401739e-38
-0.049733337 -0.24866667 1.4920001 2.3402817e-38
-0.046891432 -0.24866667 1.4920001 2.3402454e-38
-0.044049527 -0.24866667 1.4920001 2.3401732e-38
-0.041207619 -0.24866667 1.4920001 2.3402096e-38
0.058024764 -0.24766669 1.4860001 2.3403182e-38
0.06085524 -0.24766669 1.4860001 2.3402469e-38
0.063685715 -0.24766669 1.4860001 2.3402116e-38
0.066516191 -0.24766669 1.4860001 2.3402106e-38
0.069346666 -0.24766669 1.4860001 2.3402455e-38
0.072177142 -0.24766669 1.4860001 2.3403173e-38
0.075007625 -0.24766669 1.4860001 2.3402814e-38
0.0778381 -0.24766669 1.4860001 2.3402808e-38
0.080668576 -0.24766669 1.4860001 2.3402803e-38
-0.76287717 -0.21600288 1.3110001 7.2650823e-39
-0.76038003 -0.21600288 1.3110001 1.0601745e-38
-0.75499243 -0.21517906 1.3060001 1.3180049e-38
-0.75250483 -0.21517906 1.3060001 1.5758539e-38
-0.75001723 -0.21517906 1.3060001 1.2251852e-38
-0.74752957 -0.21517906 1.3060001 8.7340901e-39
-0.74789435 -0.21600288 1.3110001 7.0799442e-39
-0.74824005 -0.21682668 1.3160001 5.4258305e-39
-0.74856669 -0.21765049 1.3210001 5.8860869e-39
-0.74605054 -0.21765049 1.3210001 6.3463462e-39
-0.74353433 -0.21765049 1.3210001 6.531099e-39
-0.73372006 -0.2184743 1.3260001 7.6356249e-39
-0.73119432 -0.2184743 1.3260001 7.729254e-39
-0.73141623 -0.21929811 1.3310001 7.7310449e-39
-0.7350772 -0.2219343 1.3470001 7.9172312e-39
-0.73410857 -0.22638287 1.3740001 8.6494041e-39
-0.73149145 -0.22638287 1.3740001 8.2834914e-39
-0.73152667 -0.22720668 1.3790001 7.9161831e-39
-0.72890002 -0.22720668 1.3790001 8.0998877e-39
-0.72943342 -0.22819526 1.3850001 8.3753661e-39
-0.72679532 -0.22819526 1.3850001 8.2842215e-39
-0.72990853 -0.23000763 1.396 8.2849446e-39
-0.7272495 -0.23000763 1.396 8.5600993e-39
-0.72459048 -0.23000763 1.396 8.9270826e-39
-0.72193146 -0.23000763 1.396 9.1086012e-39
-0.72236383 -0.23099619 1.4020001 9.2969609e-39
-0.6775229 -0.23775144 1.4430001 1.7868184e-38
-0.67477435 -0.23775144 1.4430001 1.2226319e-38
-0.66923141 -0.23676287 1.437 6.6283197e-39
-0.66649431 -0.23676287 1.437 1.0945685e-38
-0.66375715 -0.23676287 1.437 1.5291434e-38
-0.31118858 -0.24582478 1.4920001 2.3307025e-38
-0.30834666 -0.24582478 1.4920001 2.34003e-38
-0.3055048 -0.24582478 1.4920001 2.3399947e-38
-0.30266288 -0.24582478 1.4920001 2.3399598e-38
-0.29982096 -0.24582478 1.4920001 2.3399609e-38
-0.29697907 -0.24582478 1.4920001 2.3399958e-38
-0.29413715 -0.24582478 1.4920001 2.3399948e-38
-0.29129526 -0.24582478 1.4920001 2.3400657e-38
-0.28845334 -0.24582478 1.4920001 2.3400291e-38
-0.28561145 -0.24582478 1.4920001 2.3399943e-38
-0.28276953 -0.24582478 1.4920001 2.3399594e-38
-0.27992764 -0.24582478 1.4920001 2.3399594e-38
-0.27708575 -0.24582478 1.4920001 2.3399594e-38
-0.27424383 -0.24582478 1.4920001 2.3399584e-38
-0.27140191 -0.24582478 1.4920001 2.3399933e-38
-0.26855999 -0.24582478 1.4920001 2.3400654e-38
-0.23161525 -0.24582478 1.4920001 2.3399954e-38
-0.22877336 -0.24582478 1.4920001 2.3399954e-38
-0.22593144 -0.24582478 1.4920001 2.3399955e-38
-0.22308955 -0.24582478 1.4920001 2.3399952e-38
-0.22024763 -0.24582478 1.4920001 2.3400667e-38
-0.21740572 -0.24582478 1.4920001 2.340067e-38
-0.21456383 -0.24582478 1.4920001 2.3400673e-38
-0.21172191 -0.24582478 1.4920001 2.340067e-38
-0.20888002 -0.24582478 1.4920001 2.3401027e-38
-0.2060381 -0.24582478 1.4920001 2.3401384e-38
-0.20319621 -0.24582478 1.4920001 2.3401024e-38
-0.19954857 -0.2448362 1.4860001 2.3401026e-38
-0.19751239 -0.24582478 1.4920001 2.3400311e-38
-0.19467048 -0.24582478 1.4920001 2.340067e-38
-0.19182858 -0.24582478 1.4920001 2.3401029e-38
-0.18898669 -0.24582478 1.4920001 2.3401384e-38
-0.18614477 -0.24582478 1.4920001 2.3401023e-38
-0.18330288 -0.24582478 1.4920001 2.3400308e-38
-0.18046096 -0.24582478 1.4920001 2.340103e-38
-0.17761905 -0.24582478 1.4920001 2.3401752e-38
-0.17477715 -0.24582478 1.4920001 2.3401757e-38
-0.17193525 -0.24582478 1.4920001 2.3402115e-38
-0.16909336 -0.24582478 1.4920001 2.3401756e-38
-0.16625144 -0.24582478 1.4920001 2.3401757e-38
-0.16340953 -0.24582478 1.4920001 2.3401043e-38
-0.16056763 -0.24582478 1.4920001 2.3400321e-38
-0.15772572 -0.24582478 1.4920001 2.3401393e-38
-0.15488382 -0.24582478 1.4920001 2.3401394e-38
-0.15204191 -0.24582478 1.4920001 2.3401397e-38
-0.14920001 -0.24582478 1.4920001 2.3402112e-38
-0.1463581 -0.24582478 1.4920001 2.3401393e-38
-0.14293905 -0.2448362 1.4860001 2.3401401e-38
-0.14010859 -0.2448362 1.4860001 2.340141e-38
-0.13783239 -0.24582478 1.4920001 2.3402116e-38
-0.13444763 -0.2448362 1.4860001 2.340103e-38
-0.13161714 -0.2448362 1.4860001 2.3400667e-38
-0.12930667 -0.24582478 1.4920001 2.3401023e-38
-0.12646477 -0.24582478 1.4920001 2.3401382e-38
-0.12362287 -0.24582478 1.4920001 2.340174e-38
-0.12078096 -0.24582478 1.4920001 2.3402458e-38
-0.11793905 -0.24582478 1.4920001 2.3402099e-38
-0.11509714 -0.24582478 1.4920001 2.3401745e-38
-0.11225525 -0.24582478 1.4920001 2.3401391e-38
-0.10941334 -0.24582478 1.4920001 2.3402817e-38
-0.10657144 -0.24582478 1.4920001 2.3402091e-38
-0.10372953 -0.24582478 1.4920001 2.3401733e-38
-0.10088763 -0.24582478 1.4920001 2.3401377e-38
-0.098045722 -0.24582478 1.4920001 2.3401377e-38
-0.094820954 -0.2448362 1.4860001 2.340102e-38
-0.091990478 -0.2448362 1.4860001 2.3401023e-38
-0.089520007 -0.24582478 1.4920001 2.3401027e-38
-0.086329527 -0.2448362 1.4860001 2.3401386e-38
-0.083499052 -0.2448362 1.4860001 2.3401027e-38
-0.080668576 -0.2448362 1.4860001 2.3402103e-38
-0.078152388 -0.24582478 1.4920001 2.3401746e-38
-0.075007625 -0.2448362 1.4860001 2.3401743e-38
-0.072468571 -0.24582478 1.4920001 2.3402818e-38
-0.069626667 -0.24582478 1.4920001 2.3402459e-38
-0.066784769 -0.24582478 1.4920001 2.3402102e-38
-0.063942865 -0.24582478 1.4920001 2.3401024e-38
-0.061100956 -0.24582478 1.4920001 2.3401742e-38
-0.058259051 -0.24582478 1.4920001 2.3402096e-38
-0.055417147 -0.24582478 1.4920001 2.3402094e-38
-0.044049527 -0.24582478 1.4920001 2.3402095e-38
-0.041207619 -0.24582478 1.4920001 2.3402101e-38
-0.038365718 -0.24582478 1.4920001 2.3402108e-38
-0.035523813 -0.24582478 1.4920001 2.3402829e-38
-0.032681905 -0.24582478 1.4920001 2.3402835e-38
-0.029840002 -0.24582478 1.4920001 2.3402828e-38
-0.026998097 -0.24582478 1.4920001 2.3403181e-38
-0.024156192 -0.24582478 1.4920001 2.340318e-38
-0.021314286 -0.24582478 1.4920001 2.3402462e-38
-0.018472383 -0.24582478 1.4920001 2.3402102e-38
-0.015630476 -0.24582478 1.4920001 2.3402459e-38
-0.012788572 -0.24582478 1.4920001 2.3401728e-38
-0.0099466667 -0.24582478 1.4920001 2.3401715e-38
-0.0071047624 -0.24582478 1.4920001 2.3401725e-38
-0.0042628576 -0.24582478 1.4920001 2.3401736e-38
-0.0014209525 -0.24582478 1.4920001 2.3402103e-38
0.0014209525 -0.24582478 1.4920001 2.340247e-38
0.0042628576 -0.24582478 1.4920001 2.3402468e-38
0.0071047624 -0.24582478 1.4920001 2.3402465e-38
0.066516191 -0.2448362 1.4860001 2.3402463e-38
0.075007625 -0.2448362 1.4860001 2.3403173e-38
0.0778381 -0.2448362 1.4860001 2.3403163e-38
-0.76287717 -0.21350573 1.3110001 5.9700822e-39
-0.76038003 -0.21350573 1.3110001 6.6398622e-39
-0.75499243 -0.21269144 1.3060001 9.0408862e-39
-0.74962384 -0.21187717 1.3010001 1.1422111e-38
-0.74714577 -0.21187717 1.3010001 9.211563e-39
-0.74466765 -0.21187717 1.3010001 6.9978155e-39
-0.73933715 -0.21106285 1.296 6.984534e-39
-0.73402572 -0.21024857 1.291 7.0810302e-39
-0.74573338 -0.21432 1.3160001 7.1753754e-39
-0.74605054 -0.21513431 1.3210001 7.2675752e-39
-0.74353433 -0.21513431 1.3210001 7.2682983e-39
-0.74101812 -0.21513431 1.3210001 7.3608499e-39
-0.73570675 -0.21432 1.3160001 7.7289065e-39
-0.73320001 -0.21432 1.3160001 8.1880826e-39
-0.73346961 -0.21513431 1.3210001 8.1898749e-39
-0.73372006 -0.21594858 1.3260001 8.1895147e-39
-0.73119432 -0.21594858 1.3260001 8.0058423e-39
-0.72866863 -0.21594858 1.3260001 7.914367e-39
-0.728881 -0.21676287 1.3310001 7.7310561e-39
-0.73234856 -0.21855427 1.342 7.6399409e-39
