# .PCD v0.7 - Point Cloud Data file format
VERSION 0.7
FIELDS x y z rgb
SIZE 4 4 4 4
TYPE F F F F
COUNT 1 1 1 1
WIDTH 1034
HEIGHT 1
VIEWPOINT 0 0 0 1 0 0 0
POINTS 1034
DATA ascii
-0.16572763 0.10221524 1.0420001 2.3406934e-38
-0.16374287 0.10221524 1.0420001 2.3410169e-38
-0.1617581 0.10221524 1.0420001 2.3407306e-38
-0.21340571 0.10520001 1.052 2.3405864e-38
-0.21140192 0.10520001 1.052 2.3407657e-38
-0.20939811 0.10520001 1.052 2.3407295e-38
-0.20739429 0.10520001 1.052 2.3406932e-38
-0.19862096 0.10480001 1.0480001 2.3406573e-38
-0.19662479 0.10480001 1.0480001 2.3406573e-38
-0.19462858 0.10480001 1.0480001 2.3406215e-38
-0.19208096 0.1045 1.0450001 2.340765e-38
-0.19009049 0.1045 1.0450001 2.3407651e-38
-0.18610953 0.1045 1.0450001 2.340765e-38
-0.18411906 0.1045 1.0450001 2.3408008e-38
-0.18160571 0.10420001 1.0420001 2.3409085e-38
-0.17962095 0.10420001 1.0420001 2.3408726e-38
-0.17565143 0.10420001 1.0420001 2.3408367e-38
-0.17366667 0.10420001 1.0420001 2.3408726e-38
-0.17168191 0.10420001 1.0420001 2.3408367e-38
-0.16969715 0.10420001 1.0420001 2.3407651e-38
-0.16771239 0.10420001 1.0420001 2.3406575e-38
-0.16572763 0.10420001 1.0420001 2.3406575e-38
-0.16374287 0.10420001 1.0420001 2.340658e-38
-0.1617581 0.10420001 1.0420001 2.3406945e-38
-0.15977333 0.10420001 1.0420001 2.34052e-38
-0.21472667 0.10587905 1.039 2.3405911e-38
-0.20860192 0.1067962 1.0480001 2.3406215e-38
-0.20660573 0.1067962 1.0480001 2.3406215e-38
-0.20460954 0.1067962 1.0480001 2.3406215e-38
-0.19946858 0.10618477 1.0420001 2.3407291e-38
-0.19805239 0.10649049 1.0450001 2.3406934e-38
-0.19606192 0.10649049 1.0450001 2.3406573e-38
-0.19407144 0.10649049 1.0450001 2.3406932e-38
-0.19152954 0.10618477 1.0420001 2.340765e-38
-0.18954477 0.10618477 1.0420001 2.3407291e-38
-0.18810001 0.10649049 1.0450001 2.3407291e-38
-0.18557525 0.10618477 1.0420001 2.3407651e-38
-0.18359047 0.10618477 1.0420001 2.3408008e-38
-0.18160571 0.10618477 1.0420001 2.340765e-38
-0.17962095 0.10618477 1.0420001 2.340765e-38
-0.17763619 0.10618477 1.0420001 2.3407291e-38
-0.17565143 0.10618477 1.0420001 2.3407291e-38
-0.17316668 0.10587905 1.039 2.3408367e-38
-0.17118762 0.10587905 1.039 2.3408726e-38
-0.16920857 0.10587905 1.039 2.3407651e-38
-0.21472667 0.1078581 1.039 2.3408397e-38
-0.21274763 0.1078581 1.039 2.3406216e-38
-0.2093924 0.10816953 1.0420001 2.3406573e-38
-0.20800477 0.10848096 1.0450001 2.3406215e-38
-0.20601431 0.10848096 1.0450001 2.3406216e-38
-0.19946858 0.10816953 1.0420001 2.3407291e-38
-0.19748382 0.10816953 1.0420001 2.340765e-38
-0.19549906 0.10816953 1.0420001 2.340765e-38
-0.1935143 0.10816953 1.0420001 2.3408008e-38
-0.19152954 0.10816953 1.0420001 2.3408367e-38
-0.18954477 0.10816953 1.0420001 2.3406215e-38
-0.18756001 0.10816953 1.0420001 2.340765e-38
-0.18504095 0.1078581 1.039 2.3408367e-38
-0.18306191 0.1078581 1.039 2.3408008e-38
-0.18108286 0.1078581 1.039 2.340765e-38
-0.17910381 0.1078581 1.039 2.3408008e-38
-0.17266667 0.10754667 1.036 2.3408367e-38
-0.17069332 0.10754667 1.036 2.340765e-38
-0.16429619 0.10723524 1.033 2.3409085e-38
-0.16232856 0.10723524 1.033 2.3409446e-38
-0.2167905 0.10888572 1.0300001 2.2483619e-38
-0.2154543 0.10920285 1.033 2.2945971e-38
-0.21410666 0.10952 1.036 2.3411243e-38
-0.21213333 0.10952 1.036 2.3405857e-38
-0.21076858 0.10983714 1.039 2.3406215e-38
-0.20878953 0.10983714 1.039 2.3406573e-38
-0.20740764 0.11015429 1.0420001 2.3406934e-38
-0.20542286 0.11015429 1.0420001 2.3406935e-38
-0.2034381 0.11015429 1.0420001 2.3407292e-38
-0.19691524 0.10983714 1.039 2.3407291e-38
-0.18648 0.10952 1.036 2.3408367e-38
-0.18253334 0.10952 1.036 2.3408008e-38
-0.18055999 0.10952 1.036 2.340765e-38
-0.17858668 0.10952 1.036 2.3408726e-38
-0.17610191 0.10920285 1.033 2.3406215e-38
-0.17413428 0.10920285 1.033 2.3406573e-38
-0.17216666 0.10920285 1.033 2.3406573e-38
-0.16970478 0.10888572 1.0300001 2.3406573e-38
-0.16774288 0.10888572 1.0300001 2.3406573e-38
-0.16578098 0.10888572 1.0300001 2.3406573e-38
-0.16381906 0.10888572 1.0300001 2.3407291e-38
-0.16185716 0.10888572 1.0300001 2.3408008e-38
-0.2167905 0.11084762 1.0300001 2.340197e-38
-0.2154543 0.11117047 1.033 2.3408733e-38
-0.21348666 0.11117047 1.033 2.3407295e-38
-0.21213333 0.11149333 1.036 2.3405856e-38
-0.21016 0.11149333 1.036 2.3406215e-38
-0.20878953 0.1118162 1.039 2.3407291e-38
-0.20681047 0.1118162 1.039 2.3406932e-38
-0.19381046 0.11117047 1.033 2.340765e-38
-0.19184285 0.11117047 1.033 2.3408369e-38
-0.18987525 0.11117047 1.033 2.3408727e-38
-0.18790761 0.11117047 1.033 2.3409445e-38
-0.18594 0.11117047 1.033 2.3408008e-38
-0.18397239 0.11117047 1.033 2.3408726e-38
-0.18200475 0.11117047 1.033 2.340765e-38
-0.18003714 0.11117047 1.033 2.340765e-38
-0.17806952 0.11117047 1.033 2.3406932e-38
-0.17559049 0.11084762 1.0300001 2.3406573e-38
-0.17362858 0.11084762 1.0300001 2.3406932e-38
-0.17166668 0.11084762 1.0300001 2.3403345e-38
-0.16970478 0.11084762 1.0300001 2.3406215e-38
-0.16774288 0.11084762 1.0300001 2.3407291e-38
-0.15880856 0.11009429 1.023 2.3402271e-38
-0.15685999 0.11009429 1.023 2.3401218e-38
-0.2167905 0.11280953 1.0300001 2.3401966e-38
-0.2154543 0.11313809 1.033 2.340335e-38
-0.21348666 0.11313809 1.033 2.3405141e-38
-0.21151905 0.11313809 1.033 2.3405497e-38
-0.20955142 0.11313809 1.033 2.3406215e-38
-0.20818667 0.11346667 1.036 2.3405857e-38
-0.19184285 0.11313809 1.033 2.3407651e-38
-0.18736191 0.11280953 1.0300001 2.340801e-38
-0.18397239 0.11313809 1.033 2.3408726e-38
-0.18200475 0.11313809 1.033 2.3407291e-38
-0.18003714 0.11313809 1.033 2.3406932e-38
-0.1775524 0.11280953 1.0300001 2.3406573e-38
-0.17559049 0.11280953 1.0300001 2.3406215e-38
-0.17362858 0.11280953 1.0300001 2.3407291e-38
-0.16904572 0.11237143 1.026 2.3405856e-38
-0.16465428 0.11204285 1.023 2.3406934e-38
-0.16270572 0.11204285 1.023 2.3406575e-38
-0.16028573 0.1117143 1.0200001 2.340837e-38
-0.15834287 0.1117143 1.0200001 2.3402992e-38
-0.15685999 0.11204285 1.023 2.3402665e-38
-0.15400288 0.11138573 1.0170001 2.2567927e-38
-0.15206572 0.11138573 1.0170001 2.183077e-38
-0.21790285 0.11432571 1.026 2.2386392e-38
-0.21594857 0.11432571 1.026 2.3401579e-38
-0.2148286 0.11477143 1.0300001 2.3405143e-38
-0.21286669 0.11477143 1.0300001 2.340514e-38
-0.21090478 0.11477143 1.0300001 2.340478e-38
-0.20894288 0.11477143 1.0300001 2.3405499e-38
-0.19720002 0.11365715 1.0200001 2.3405497e-38
-0.18858857 0.11432571 1.026 2.3406941e-38
-0.18663429 0.11432571 1.026 2.3406932e-38
-0.18468 0.11432571 1.026 2.3408367e-38
-0.1795143 0.11477143 1.0300001 2.3406573e-38
-0.1775524 0.11477143 1.0300001 2.3406573e-38
-0.16417144 0.11365715 1.0200001 2.3405499e-38
-0.16222858 0.11365715 1.0200001 2.340514e-38
-0.16028573 0.11365715 1.0200001 2.3404424e-38
-0.15834287 0.11365715 1.0200001 2.3403706e-38
-0.15640001 0.11365715 1.0200001 2.3400506e-38
-0.15400288 0.11332286 1.0170001 2.2659393e-38
-0.15206572 0.11332286 1.0170001 2.2016593e-38
-0.15012857 0.11332286 1.0170001 2.1832973e-38
-0.21594857 0.11628 1.026 2.3401553e-38
-0.21399428 0.11628 1.026 2.3406218e-38
-0.21203999 0.11628 1.026 2.340514e-38
-0.20302859 0.11560001 1.0200001 2.3404781e-38
-0.20108573 0.11560001 1.0200001 2.340478e-38
-0.19914287 0.11560001 1.0200001 2.3405139e-38
-0.19662002 0.11526 1.0170001 2.3405139e-38
-0.19525716 0.11560001 1.0200001 2.3405856e-38
-0.19274572 0.11526 1.0170001 2.3406573e-38
-0.19137144 0.11560001 1.0200001 2.340659e-38
-0.18998571 0.11594 1.023 2.3406967e-38
-0.18803714 0.11594 1.023 2.3407308e-38
-0.18608858 0.11594 1.023 2.3408726e-38
-0.18414 0.11594 1.023 2.3410162e-38
-0.18219142 0.11594 1.023 2.3410164e-38
-0.18024287 0.11594 1.023 2.3411238e-38
-0.16950002 0.11526 1.0170001 2.3406215e-38
-0.16756286 0.11526 1.0170001 2.3405497e-38
-0.16562572 0.11526 1.0170001 2.3405856e-38
-0.16368859 0.11526 1.0170001 2.3404781e-38
-0.16175145 0.11526 1.0170001 2.34055e-38
-0.1598143 0.11526 1.0170001 2.3406575e-38
-0.15787715 0.11526 1.0170001 2.3403346e-38
-0.15594001 0.11526 1.0170001 2.3398348e-38
-0.15400288 0.11526 1.0170001 2.2658307e-38
-0.15206572 0.11526 1.0170001 2.1922966e-38
-0.15012857 0.11526 1.0170001 2.183155e-38
-0.21594857 0.11823429 1.026 2.3404065e-38
-0.21399428 0.11823429 1.026 2.3407655e-38
-0.21203999 0.11823429 1.026 2.3405859e-38
-0.19855715 0.11719715 1.0170001 2.340478e-38
-0.19662002 0.11719715 1.0170001 2.3405139e-38
-0.19468288 0.11719715 1.0170001 2.3405856e-38
-0.18024287 0.11788857 1.023 2.3410161e-38
-0.1733743 0.11719715 1.0170001 2.3405139e-38
-0.17143716 0.11719715 1.0170001 2.3405497e-38
-0.16900001 0.11685143 1.0140001 2.3406215e-38
-0.16706859 0.11685143 1.0140001 2.3406215e-38
-0.16513716 0.11685143 1.0140001 2.3406215e-38
-0.16320573 0.11685143 1.0140001 2.3407292e-38
-0.1612743 0.11685143 1.0140001 2.340837e-38
-0.15934287 0.11685143 1.0140001 2.3407651e-38
-0.15787715 0.11719715 1.0170001 2.3402986e-38
-0.15594001 0.11719715 1.0170001 2.3394406e-38
-0.15400288 0.11719715 1.0170001 2.265724e-38
-0.15206572 0.11719715 1.0170001 2.1922967e-38
-0.15012857 0.11719715 1.0170001 2.1831542e-38
-0.2140543 0.11913429 1.0170001 2.3406578e-38
-0.21211717 0.11913429 1.0170001 2.3406583e-38
-0.21018001 0.11913429 1.0170001 2.3406936e-38
-0.19738571 0.11843143 1.011 2.3405856e-38
-0.19546001 0.11843143 1.011 2.3406575e-38
-0.1935343 0.11843143 1.011 2.3410162e-38
-0.19160858 0.11843143 1.011 2.3410522e-38
-0.18968286 0.11843143 1.011 2.341124e-38
-0.18583143 0.11843143 1.011 2.3410522e-38
-0.16657428 0.11843143 1.011 2.340765e-38
-0.16464858 0.11843143 1.011 2.3407291e-38
-0.16272287 0.11843143 1.011 2.3407292e-38
-0.16079715 0.11843143 1.011 2.3408011e-38
-0.15934287 0.11878286 1.0140001 2.3408727e-38
-0.15741144 0.11878286 1.0140001 2.3217522e-38
-0.15548001 0.11878286 1.0140001 2.3023122e-38
-0.15400288 0.11913429 1.0170001 2.265725e-38
-0.15206572 0.11913429 1.0170001 2.2198834e-38
-0.15012857 0.11913429 1.0170001 2.2014847e-38
-0.21599144 0.12107144 1.0170001 2.3034927e-38
-0.2140543 0.12107144 1.0170001 2.3406216e-38
-0.21211717 0.12107144 1.0170001 2.3405501e-38
-0.20063999 0.12 1.008 2.3404421e-38
-0.19832572 0.11976191 1.006 2.3404062e-38
-0.19679999 0.12 1.008 2.340765e-38
-0.19488001 0.12 1.008 2.3408369e-38
-0.19295999 0.12 1.008 2.3409803e-38
-0.19104001 0.12 1.008 2.3410521e-38
-0.18911999 0.12 1.008 2.3410521e-38
-0.18054 0.11940476 1.003 2.3409443e-38
-0.17862953 0.11940476 1.003 2.3409085e-38
-0.16334571 0.11940476 1.003 2.3409445e-38
-0.16143525 0.11940476 1.003 2.3408373e-38
-0.15548001 0.12071429 1.0140001 2.2749052e-38
-0.15354858 0.12071429 1.0140001 2.2657249e-38
-0.15206572 0.12107144 1.0170001 2.2566526e-38
-0.15012857 0.12107144 1.0170001 2.2199939e-38
-0.20832001 0.12192 1.008 2.340765e-38
-0.20639999 0.12192 1.008 2.3407291e-38
-0.20448001 0.12192 1.008 2.3406932e-38
-0.20215809 0.1216781 1.006 2.3406932e-38
-0.20024191 0.1216781 1.006 2.3407291e-38
-0.19773428 0.12131524 1.003 2.3408367e-38
-0.19640954 0.1216781 1.006 2.3409443e-38
-0.19449334 0.1216781 1.006 2.3409445e-38
-0.19200285 0.12131524 1.003 2.3409443e-38
-0.19066097 0.1216781 1.006 2.341052e-38
-0.18818191 0.12131524 1.003 2.341052e-38
-0.18627143 0.12131524 1.003 2.341052e-38
-0.18436097 0.12131524 1.003 2.3410161e-38
-0.18245047 0.12131524 1.003 2.3410161e-38
-0.18054 0.12131524 1.003 2.3409085e-38
-0.17862953 0.12131524 1.003 2.3409802e-38
-0.17671905 0.12131524 1.003 2.3412313e-38
-0.17047618 0.12095238 1 2.3410161e-38
-0.16857143 0.12095238 1 2.3409802e-38
-0.16616668 0.12058952 0.99700004 2.3411237e-38
-0.1647619 0.12095238 1 2.3413032e-38
-0.16285715 0.12095238 1 2.3412317e-38
-0.16095237 0.12095238 1 2.3411607e-38
-0.15354858 0.12264571 1.0140001 2.2473219e-38
-0.15161715 0.12264571 1.0140001 2.2384283e-38
-0.14968573 0.12264571 1.0140001 2.2016254e-38
-0.20599048 0.12359428 1.006 2.341052e-38
-0.20155525 0.12322572 1.003 2.3408726e-38
-0.19964476 0.12322572 1.003 2.3408726e-38
-0.19773428 0.12322572 1.003 2.3409085e-38
-0.19582382 0.12322572 1.003 2.3409443e-38
-0.19391334 0.12322572 1.003 2.3409803e-38
-0.19200285 0.12322572 1.003 2.3410161e-38
-0.19009238 0.12322572 1.003 2.341052e-38
-0.18818191 0.12322572 1.003 2.341052e-38
-0.18627143 0.12322572 1.003 2.341052e-38
-0.18380952 0.12285714 1 2.341052e-38
-0.18190476 0.12285714 1 2.341052e-38
-0.17999999 0.12285714 1 2.341052e-38
-0.17376286 0.12248857 0.99700004 2.3411954e-38
-0.17186381 0.12248857 0.99700004 2.3411608e-38
-0.16996478 0.12248857 0.99700004 2.3411622e-38
-0.16857143 0.12285714 1 2.341125e-38
-0.16616668 0.12248857 0.99700004 2.3411237e-38
-0.16426761 0.12248857 0.99700004 2.3413032e-38
-0.16236857 0.12248857 0.99700004 2.3413035e-38
-0.16046953 0.12248857 0.99700004 2.3411614e-38
-0.15857048 0.12248857 0.99700004 2.3409476e-38
-0.15241332 0.12212 0.99400002 2.2473176e-38
-0.15161715 0.12457716 1.0140001 2.2198091e-38
-0.21554191 0.12438763 0.99700004 2.1923017e-38
-0.21364287 0.12438763 0.99700004 2.3407379e-38
-0.21174382 0.12438763 0.99700004 2.3406589e-38
-0.20984477 0.12438763 0.99700004 2.3414495e-38
-0.20857142 0.1247619 1 2.3409487e-38
-0.20666666 0.1247619 1 2.3409824e-38
-0.20476191 0.1247619 1 2.3409803e-38
-0.20285714 0.1247619 1 2.3410161e-38
-0.20095238 0.1247619 1 2.3410161e-38
-0.19904761 0.1247619 1 2.341052e-38
-0.19714285 0.1247619 1 2.3411238e-38
-0.1952381 0.1247619 1 2.3411956e-38
-0.19333333 0.1247619 1 2.3411238e-38
-0.19142857 0.1247619 1 2.341052e-38
-0.1895238 0.1247619 1 2.341052e-38
-0.1870562 0.12438763 0.99700004 2.3410878e-38
-0.18515715 0.12438763 0.99700004 2.341088e-38
-0.1832581 0.12438763 0.99700004 2.3410878e-38
-0.18135905 0.12438763 0.99700004 2.3409802e-38
-0.17892 0.12401333 0.99400002 2.3412672e-38
-0.17702667 0.12401333 0.99400002 2.341088e-38
-0.17513333 0.12401333 0.99400002 2.3410161e-38
-0.17324001 0.12401333 0.99400002 2.3412313e-38
-0.17134666 0.12401333 0.99400002 2.3412699e-38
-0.16945334 0.12401333 0.99400002 2.3412008e-38
-0.16806573 0.12438763 0.99700004 2.341234e-38
-0.16566665 0.12401333 0.99400002 2.3412673e-38
-0.16377334 0.12401333 0.99400002 2.3413392e-38
-0.16188 0.12401333 0.99400002 2.3412676e-38
-0.15998667 0.12401333 0.99400002 2.341198e-38
-0.15809333 0.12401333 0.99400002 2.3408413e-38
-0.15620001 0.12401333 0.99400002 2.3403727e-38
-0.15430667 0.12401333 0.99400002 2.2934126e-38
-0.15241332 0.12401333 0.99400002 2.2471369e-38
-0.15052 0.12401333 0.99400002 2.2290218e-38
-0.21678667 0.12590666 0.99400002 2.0729513e-38
-0.21489333 0.12590666 0.99400002 2.2016623e-38
-0.213 0.12590666 0.99400002 2.3408441e-38
-0.21174382 0.12628667 0.99700004 2.3409097e-38
-0.20984477 0.12628667 0.99700004 2.340946e-38
-0.20794572 0.12628667 0.99700004 2.3410183e-38
-0.20604667 0.12628667 0.99700004 2.3410531e-38
-0.20414762 0.12628667 0.99700004 2.3411238e-38
-0.20224857 0.12628667 0.99700004 2.3411237e-38
-0.20034952 0.12628667 0.99700004 2.3411237e-38
-0.19845048 0.12628667 0.99700004 2.3411596e-38
-0.19655144 0.12628667 0.99700004 2.3411954e-38
-0.19465239 0.12628667 0.99700004 2.3411954e-38
-0.19275334 0.12628667 0.99700004 2.3411597e-38
-0.19085428 0.12628667 0.99700004 2.3410878e-38
-0.18895525 0.12628667 0.99700004 2.3411237e-38
-0.18649334 0.12590666 0.99400002 2.3411237e-38
-0.1846 0.12590666 0.99400002 2.3411954e-38
-0.18270667 0.12590666 0.99400002 2.3411237e-38
-0.18081334 0.12590666 0.99400002 2.3409085e-38
-0.17838001 0.12552667 0.99100006 2.3410878e-38
-0.17649239 0.12552667 0.99100006 2.3411596e-38
-0.17460477 0.12552667 0.99100006 2.3412313e-38
-0.17271715 0.12552667 0.99100006 2.3413031e-38
-0.17082953 0.12552667 0.99100006 2.3412326e-38
-0.16894192 0.12552667 0.99100006 2.3411981e-38
-0.16756 0.12590666 0.99400002 2.3412687e-38
-0.16566665 0.12590666 0.99400002 2.3413752e-38
-0.16327906 0.12552667 0.99100006 2.3413752e-38
-0.16139144 0.12552667 0.99100006 2.341124e-38
-0.15950382 0.12552667 0.99100006 2.3411624e-38
-0.15809333 0.12590666 0.99400002 2.3407344e-38
-0.15620001 0.12590666 0.99400002 2.3398712e-38
-0.15430667 0.12590666 0.99400002 2.2931261e-38
-0.15241332 0.12590666 0.99400002 2.2473167e-38
-0.15052 0.12590666 0.99400002 2.2290938e-38
-0.21678667 0.1278 0.99400002 2.0820984e-38
-0.21489333 0.1278 0.99400002 2.2109869e-38
-0.213 0.1278 0.99400002 2.3409864e-38
-0.21110667 0.1278 0.99400002 2.3410888e-38
-0.20921335 0.1278 0.99400002 2.3412319e-38
-0.20732 0.1278 0.99400002 2.3413391e-38
-0.20604667 0.12818572 0.99700004 2.3414826e-38
-0.20353334 0.1278 0.99400002 2.3411957e-38
-0.20163999 0.1278 0.99400002 2.3411956e-38
-0.19974667 0.1278 0.99400002 2.3411954e-38
-0.19785333 0.1278 0.99400002 2.3412313e-38
-0.19596002 0.1278 0.99400002 2.3411954e-38
-0.19406667 0.1278 0.99400002 2.3411954e-38
-0.19217333 0.1278 0.99400002 2.3411597e-38
-0.19028001 0.1278 0.99400002 2.3410878e-38
-0.18838666 0.1278 0.99400002 2.3411237e-38
-0.18593048 0.12741429 0.99100006 2.3411596e-38
-0.1846 0.1278 0.99400002 2.3411596e-38
-0.18270667 0.1278 0.99400002 2.3411596e-38
-0.18026762 0.12741429 0.99100006 2.3410878e-38
-0.17838001 0.12741429 0.99100006 2.3410161e-38
-0.17649239 0.12741429 0.99100006 2.3411237e-38
-0.17460477 0.12741429 0.99100006 2.3411954e-38
-0.17271715 0.12741429 0.99100006 2.3411596e-38
-0.17082953 0.12741429 0.99100006 2.3411596e-38
-0.16843048 0.12702857 0.98800004 2.3411954e-38
-0.1670543 0.12741429 0.99100006 2.3415905e-38
-0.16516666 0.12741429 0.99100006 2.3415191e-38
-0.16327906 0.12741429 0.99100006 2.3414471e-38
-0.16139144 0.12741429 0.99100006 2.3410164e-38
-0.15950382 0.12741429 0.99100006 2.3411269e-38
-0.1576162 0.12741429 0.99100006 2.3127183e-38
-0.15620001 0.1278 0.99400002 2.2934519e-38
-0.15430667 0.1278 0.99400002 2.2747596e-38
-0.15241332 0.1278 0.99400002 2.2659712e-38
-0.15052 0.1278 0.99400002 2.2383495e-38
-0.21626002 0.12825809 0.98300004 2.1097598e-38
-0.21424477 0.12930192 0.99100006 2.22035e-38
-0.21235715 0.12930192 0.99100006 2.3408789e-38
-0.21046953 0.12930192 0.99100006 2.3414477e-38
-0.20858192 0.12930192 0.99100006 2.3412319e-38
-0.20669429 0.12930192 0.99100006 2.3413032e-38
-0.20480667 0.12930192 0.99100006 2.3413032e-38
-0.20353334 0.12969334 0.99400002 2.3413032e-38
-0.20103143 0.12930192 0.99100006 2.3411954e-38
-0.19914383 0.12930192 0.99100006 2.3411954e-38
-0.19725621 0.12930192 0.99100006 2.3411604e-38
-0.19536857 0.12930192 0.99100006 2.3411255e-38
-0.19348097 0.12930192 0.99100006 2.3411604e-38
-0.19159333 0.12930192 0.99100006 2.3411596e-38
-0.18970571 0.12930192 0.99100006 2.3411237e-38
-0.18781811 0.12930192 0.99100006 2.3411237e-38
-0.18536761 0.12891048 0.98800004 2.3411954e-38
-0.18404287 0.12930192 0.99100006 2.3408726e-38
-0.18215525 0.12930192 0.99100006 2.3411964e-38
-0.17972191 0.12891048 0.98800004 2.3411615e-38
-0.17784001 0.12891048 0.98800004 2.3411247e-38
-0.17595811 0.12891048 0.98800004 2.3411237e-38
-0.1740762 0.12891048 0.98800004 2.3412313e-38
-0.17219429 0.12891048 0.98800004 2.3412313e-38
-0.17031237 0.12891048 0.98800004 2.3411964e-38
-0.16791907 0.12851906 0.98500007 2.3411975e-38
-0.16654858 0.12891048 0.98800004 2.3411968e-38
-0.16466667 0.12891048 0.98800004 2.3411963e-38
-0.16278477 0.12891048 0.98800004 2.3414117e-38
-0.16090287 0.12891048 0.98800004 2.3409096e-38
-0.15902095 0.12891048 0.98800004 2.3403366e-38
-0.1576162 0.12930192 0.99100006 2.2938817e-38
-0.15620001 0.12969334 0.99400002 2.2566082e-38
-0.15477239 0.13008477 0.99700004 2.2655754e-38
-0.15287334 0.13008477 0.99700004 2.2842662e-38
-0.15097429 0.13008477 0.99700004 2.2476045e-38
-0.21813239 0.13013048 0.98300004 2.1279464e-38
-0.21626002 0.13013048 0.98300004 2.1187989e-38
-0.21482383 0.13039525 0.98500007 2.1096841e-38
-0.21359619 0.13079238 0.98800004 2.220135e-38
-0.21235715 0.13118953 0.99100006 2.3407714e-38
-0.20983239 0.13079238 0.98800004 2.3409815e-38
-0.20795049 0.13079238 0.98800004 2.341232e-38
-0.20606858 0.13079238 0.98800004 2.3411956e-38
-0.20480667 0.13118953 0.99100006 2.3411954e-38
-0.20291907 0.13118953 0.99100006 2.3411954e-38
-0.19665904 0.13079238 0.98800004 2.3411255e-38
-0.19477715 0.13079238 0.98800004 2.3411273e-38
-0.19289525 0.13079238 0.98800004 2.3411614e-38
-0.18855716 0.13039525 0.98500007 2.3411596e-38
-0.18668096 0.13039525 0.98500007 2.3411956e-38
-0.18480477 0.13039525 0.98500007 2.3412672e-38
-0.18348572 0.13079238 0.98800004 2.3412672e-38
-0.18160382 0.13079238 0.98800004 2.3412692e-38
-0.17972191 0.13079238 0.98800004 2.3412713e-38
-0.17784001 0.13079238 0.98800004 2.3412692e-38
-0.17595811 0.13079238 0.98800004 2.3412672e-38
-0.17354763 0.13039525 0.98500007 2.3412672e-38
-0.16979526 0.13039525 0.98500007 2.3413052e-38
-0.1675781 0.13013048 0.98300004 2.341092e-38
-0.16604286 0.13039525 0.98500007 2.3410186e-38
-0.16416667 0.13039525 0.98500007 2.3411964e-38
-0.16229048 0.13039525 0.98500007 2.3413764e-38
-0.16041429 0.13039525 0.98500007 2.3311889e-38
-0.15902095 0.13079238 0.98800004 2.3307573e-38
-0.15713905 0.13079238 0.98800004 2.2935558e-38
-0.15572858 0.13118953 0.99100006 2.2656823e-38
-0.15430667 0.13158667 0.99400002 2.265754e-38
-0.15287334 0.13198382 0.99700004 2.2750463e-38
-0.15097429 0.13198382 0.99700004 2.256788e-38
-0.21813239 0.13200286 0.98300004 2.1370951e-38
-0.21626002 0.13200286 0.98300004 2.1279107e-38
-0.21438763 0.13200286 0.98300004 2.1187962e-38
-0.21359619 0.13267428 0.98800004 2.2291038e-38
-0.21171428 0.13267428 0.98800004 2.3404488e-38
-0.20919526 0.13227144 0.98500007 2.3408021e-38
-0.20731905 0.13227144 0.98500007 2.3412683e-38
-0.20544286 0.13227144 0.98500007 2.3411964e-38
-0.20356667 0.13227144 0.98500007 2.3411967e-38
-0.20169048 0.13227144 0.98500007 2.3411971e-38
-0.19940858 0.13200286 0.98300004 2.3411606e-38
-0.19566381 0.13200286 0.98300004 2.3411248e-38
-0.19418573 0.13227144 0.98500007 2.3411615e-38
-0.19191906 0.13200286 0.98300004 2.3411607e-38
-0.19004667 0.13200286 0.98300004 2.3411241e-38
-0.1876 0.13160001 0.98000002 2.3411241e-38
-0.1863019 0.13200286 0.98300004 2.3412678e-38
-0.18386666 0.13160001 0.98000002 2.3413035e-38
-0.18255715 0.13200286 0.98300004 2.3413394e-38
-0.17881238 0.13200286 0.98300004 2.3413415e-38
-0.17730001 0.13227144 0.98500007 2.3413405e-38
-0.17542382 0.13227144 0.98500007 2.3413395e-38
-0.17319524 0.13200286 0.98300004 2.3412675e-38
-0.17132287 0.13200286 0.98300004 2.3412673e-38
-0.16945048 0.13200286 0.98300004 2.3411248e-38
-0.1675781 0.13200286 0.98300004 2.3410182e-38
-0.16383334 0.13200286 0.98300004 2.3405862e-38
-0.16196096 0.13200286 0.98300004 2.3402276e-38
-0.16008857 0.13200286 0.98300004 2.3306856e-38
-0.1585381 0.13227144 0.98500007 2.3306133e-38
-0.15713905 0.13267428 0.98800004 2.3024165e-38
-0.15620001 0.13348001 0.99400002 2.2749017e-38
-0.15430667 0.13348001 0.99400002 2.2750452e-38
-0.15287334 0.13388287 0.99700004 2.2750818e-38
-0.15097429 0.13388287 0.99700004 2.2659708e-38
-0.2156 0.13346666 0.98000002 2.1279467e-38
-0.21438763 0.13387524 0.98300004 2.1277648e-38
-0.20919526 0.13414763 0.98500007 2.2851268e-38
-0.20689811 0.13387524 0.98300004 2.3413405e-38
-0.20502572 0.13387524 0.98300004 2.341269e-38
-0.20315334 0.13387524 0.98300004 2.3411981e-38
-0.20169048 0.13414763 0.98500007 2.3412707e-38
-0.19940858 0.13387524 0.98300004 2.341341e-38
-0.19379143 0.13387524 0.98300004 2.3411241e-38
-0.18573333 0.13346666 0.98000002 2.3412324e-38
-0.18386666 0.13346666 0.98000002 2.3413758e-38
-0.18200001 0.13346666 0.98000002 2.3414115e-38
-0.18013333 0.13346666 0.98000002 2.3414475e-38
-0.17826667 0.13346666 0.98000002 2.3414118e-38
-0.16841619 0.1330581 0.97700006 2.3410164e-38
-0.16655524 0.1330581 0.97700006 2.3407651e-38
-0.16469429 0.1330581 0.97700006 2.3405499e-38
-0.16333333 0.13346666 0.98000002 2.3403705e-38
-0.16146667 0.13346666 0.98000002 2.340191e-38
-0.1596 0.13346666 0.98000002 2.3305411e-38
-0.15821621 0.13387524 0.98300004 2.3304693e-38
-0.15634382 0.13387524 0.98300004 2.3116e-38
-0.15287334 0.1357819 0.99700004 2.2659697e-38
-0.15097429 0.1357819 0.99700004 2.2567148e-38
-0.21438763 0.13574763 0.98300004 2.1462751e-38
-0.21186668 0.13533334 0.98000002 2.1462014e-38
-0.20500381 0.13450477 0.97400004 2.34012e-38
-0.20314859 0.13450477 0.97400004 2.3405864e-38
-0.20129333 0.13450477 0.97400004 2.3405869e-38
-0.1994381 0.13450477 0.97400004 2.3405873e-38
-0.19717716 0.13422857 0.97200006 2.3405866e-38
-0.19532572 0.13422857 0.97200006 2.340586e-38
-0.19347429 0.13422857 0.97200006 2.3407652e-38
-0.19201715 0.13450477 0.97400004 2.3409805e-38
-0.19016191 0.13450477 0.97400004 2.3408011e-38
-0.18830666 0.13450477 0.97400004 2.3406578e-38
-0.18645144 0.13450477 0.97400004 2.340586e-38
-0.1845962 0.13450477 0.97400004 2.3405144e-38
-0.18274096 0.13450477 0.97400004 2.3404425e-38
-0.17717525 0.13450477 0.97400004 2.3404785e-38
-0.17532001 0.13450477 0.97400004 2.3404427e-38
-0.17346476 0.13450477 0.97400004 2.3404068e-38
-0.17160952 0.13450477 0.97400004 2.3401913e-38
-0.16940571 0.13422857 0.97200006 2.3400118e-38
-0.16789906 0.13450477 0.97400004 2.3399042e-38
-0.16604382 0.13450477 0.97400004 2.3397964e-38
-0.16469429 0.13491905 0.97700006 2.3397964e-38
-0.16283333 0.13491905 0.97700006 2.3398323e-38
-0.16097239 0.13491905 0.97700006 2.3397246e-38
-0.1596 0.13533334 0.98000002 2.339617e-38
-0.15821621 0.13574763 0.98300004 2.3395812e-38
-0.15634382 0.13574763 0.98300004 2.3208194e-38
-0.15447143 0.13574763 0.98300004 2.30256e-38
-0.15259905 0.13574763 0.98300004 2.2843005e-38
-0.15072666 0.13574763 0.98300004 2.2659335e-38
-0.1488543 0.13574763 0.98300004 2.2474591e-38
-0.2112181 0.13678001 0.97700006 2.1278703e-38
-0.20871429 0.13636 0.97400004 2.1369397e-38
-0.20685905 0.13636 0.97400004 2.2383469e-38
-0.20500381 0.13636 0.97400004 2.3398323e-38
-0.20314859 0.13636 0.97400004 2.3306128e-38
-0.20129333 0.13636 0.97400004 2.330577e-38
-0.19902858 0.13608 0.97200006 2.3309357e-38
-0.19717716 0.13608 0.97200006 2.340478e-38
-0.19532572 0.13608 0.97200006 2.3405497e-38
-0.19347429 0.13608 0.97200006 2.3406215e-38
-0.19162287 0.13608 0.97200006 2.3311511e-38
-0.18977143 0.13608 0.97200006 2.3309e-38
-0.18792 0.13608 0.97200006 2.3310435e-38
-0.18606858 0.13608 0.97200006 2.3404062e-38
-0.18421715 0.13608 0.97200006 2.3404062e-38
-0.18236572 0.13608 0.97200006 2.3404421e-38
-0.18051429 0.13608 0.97200006 2.3403704e-38
-0.17866287 0.13608 0.97200006 2.3403345e-38
-0.17681144 0.13608 0.97200006 2.3402986e-38
-0.17496 0.13608 0.97200006 2.3402986e-38
-0.17310858 0.13608 0.97200006 2.3402627e-38
-0.17072858 0.13566001 0.96900004 2.3402269e-38
-0.16888286 0.13566001 0.96900004 2.339904e-38
-0.16703714 0.13566001 0.96900004 2.3400116e-38
-0.16570286 0.13608 0.97200006 2.3397605e-38
-0.16385144 0.13608 0.97200006 2.3397246e-38
-0.16233334 0.13636 0.97400004 2.3397605e-38
-0.16047809 0.13636 0.97400004 2.3399399e-38
-0.15911144 0.13678001 0.97700006 2.339617e-38
-0.15773334 0.1372 0.98000002 2.3395094e-38
-0.15586667 0.1372 0.98000002 2.3211064e-38
-0.15447143 0.13762 0.98300004 2.3027035e-38
-0.15259905 0.13762 0.98300004 2.2843006e-38
-0.15072666 0.13762 0.98300004 2.2567498e-38
-0.1488543 0.13762 0.98300004 2.2383827e-38
-0.2112181 0.13864097 0.97700006 2.1095743e-38
-0.20935716 0.13864097 0.97700006 2.1370829e-38
-0.20749621 0.13864097 0.97700006 2.2380599e-38
-0.20500381 0.13821524 0.97400004 2.3391507e-38
-0.20273143 0.13793144 0.97200006 2.3300747e-38
-0.20088001 0.13793144 0.97200006 2.3304693e-38
-0.19902858 0.13793144 0.97200006 2.3305052e-38
-0.19717716 0.13793144 0.97200006 2.3396888e-38
-0.19532572 0.13793144 0.97200006 2.3397246e-38
-0.19347429 0.13793144 0.97200006 2.3396888e-38
-0.19162287 0.13793144 0.97200006 2.3305052e-38
-0.18977143 0.13793144 0.97200006 2.3304335e-38
-0.18792 0.13793144 0.97200006 2.3303617e-38
-0.18606858 0.13793144 0.97200006 2.339617e-38
-0.18421715 0.13793144 0.97200006 2.3396888e-38
-0.18236572 0.13793144 0.97200006 2.3397605e-38
-0.18051429 0.13793144 0.97200006 2.3398681e-38
-0.17866287 0.13793144 0.97200006 2.3397964e-38
-0.17681144 0.13793144 0.97200006 2.3397605e-38
-0.17442 0.13750573 0.96900004 2.3397605e-38
-0.17257428 0.13750573 0.96900004 2.3397605e-38
-0.17072858 0.13750573 0.96900004 2.3397964e-38
-0.16888286 0.13750573 0.96900004 2.3398323e-38
-0.16703714 0.13750573 0.96900004 2.3397964e-38
-0.16570286 0.13793144 0.97200006 2.3397605e-38
-0.16385144 0.13793144 0.97200006 2.3397246e-38
-0.16233334 0.13821524 0.97400004 2.3397246e-38
-0.16097239 0.13864097 0.97700006 2.3396888e-38
-0.15911144 0.13864097 0.97700006 2.3396529e-38
-0.15773334 0.13906667 0.98000002 2.339617e-38
-0.15634382 0.13949239 0.98300004 2.3212499e-38
-0.15447143 0.13949239 0.98300004 2.311923e-38
-0.15259905 0.13949239 0.98300004 2.2843724e-38
-0.15072666 0.13949239 0.98300004 2.2566788e-38
-0.1488543 0.13949239 0.98300004 2.2291288e-38
-0.20871429 0.14007048 0.97400004 2.2381015e-38
-0.20749621 0.14050192 0.97700006 2.2839776e-38
-0.20500381 0.14007048 0.97400004 2.3390431e-38
-0.20273143 0.13978286 0.97200006 2.3302541e-38
-0.20088001 0.13978286 0.97200006 2.3303976e-38
-0.19902858 0.13978286 0.97200006 2.3304335e-38
-0.19717716 0.13978286 0.97200006 2.3396529e-38
-0.19532572 0.13978286 0.97200006 2.3396529e-38
-0.19347429 0.13978286 0.97200006 2.3396529e-38
-0.19162287 0.13978286 0.97200006 2.3304693e-38
-0.18977143 0.13978286 0.97200006 2.3303617e-38
-0.18792 0.13978286 0.97200006 2.3303617e-38
-0.18606858 0.13978286 0.97200006 2.3395812e-38
-0.18421715 0.13978286 0.97200006 2.3397246e-38
-0.18236572 0.13978286 0.97200006 2.3398681e-38
-0.17995714 0.13935143 0.96900004 2.3397605e-38
-0.17866287 0.13978286 0.97200006 2.3396888e-38
-0.17681144 0.13978286 0.97200006 2.3396529e-38
-0.17442 0.13935143 0.96900004 2.3396529e-38
-0.17072858 0.13935143 0.96900004 2.3306128e-38
-0.16888286 0.13935143 0.96900004 2.330577e-38
-0.16703714 0.13935143 0.96900004 2.3397605e-38
-0.16570286 0.13978286 0.97200006 2.3397605e-38
-0.16385144 0.13978286 0.97200006 2.3397964e-38
-0.16233334 0.14007048 0.97400004 2.3397964e-38
-0.16097239 0.14050192 0.97700006 2.3398323e-38
-0.1596 0.14093333 0.98000002 2.3397964e-38
-0.15773334 0.14093333 0.98000002 2.3397964e-38
-0.15634382 0.14136475 0.98300004 2.3119948e-38
-0.15447143 0.14136475 0.98300004 2.2936277e-38
-0.15259905 0.14136475 0.98300004 2.2659337e-38
-0.15072666 0.14136475 0.98300004 2.2474602e-38
-0.1488543 0.14136475 0.98300004 2.2290585e-38
-0.20871429 0.14192572 0.97400004 2.3396225e-38
-0.20685905 0.14192572 0.97400004 2.3397251e-38
-0.20500381 0.14192572 0.97400004 2.3396532e-38
-0.20273143 0.14163429 0.97200006 2.3396172e-38
-0.20088001 0.14163429 0.97200006 2.339617e-38
-0.19902858 0.14163429 0.97200006 2.339617e-38
-0.19717716 0.14163429 0.97200006 2.339617e-38
-0.19532572 0.14163429 0.97200006 2.3396529e-38
-0.19347429 0.14163429 0.97200006 2.3396529e-38
-0.19162287 0.14163429 0.97200006 2.3396529e-38
-0.18977143 0.14163429 0.97200006 2.3396529e-38
-0.18792 0.14163429 0.97200006 2.3396529e-38
-0.18606858 0.14163429 0.97200006 2.3396888e-38
-0.18421715 0.14163429 0.97200006 2.3397605e-38
-0.18180285 0.14119714 0.96900004 2.3396888e-38
-0.17995714 0.14119714 0.96900004 2.3396529e-38
-0.17811143 0.14119714 0.96900004 2.3396529e-38
-0.17626572 0.14119714 0.96900004 2.3396529e-38
-0.17442 0.14119714 0.96900004 2.3396888e-38
-0.17257428 0.14119714 0.96900004 2.3305411e-38
-0.17072858 0.14119714 0.96900004 2.3305411e-38
-0.16888286 0.14119714 0.96900004 2.3305411e-38
-0.16703714 0.14119714 0.96900004 2.3397605e-38
-0.16570286 0.14163429 0.97200006 2.3398324e-38
-0.16385144 0.14163429 0.97200006 2.3398683e-38
-0.16233334 0.14192572 0.97400004 2.33994e-38
-0.16097239 0.14236286 0.97700006 2.33994e-38
-0.15911144 0.14236286 0.97700006 2.3399759e-38
-0.15773334 0.1428 0.98000002 2.339904e-38
-0.15634382 0.14323714 0.98300004 2.3027752e-38
-0.15447143 0.14323714 0.98300004 2.2751169e-38
-0.15290953 0.14352858 0.98500007 2.2565347e-38
-0.15103334 0.14352858 0.98500007 2.2474595e-38
-0.14915715 0.14352858 0.98500007 2.2198737e-38
-0.14728096 0.14352858 0.98500007 2.2014745e-38
-0.20871429 0.14378095 0.97400004 2.2204513e-38
-0.20500381 0.14378095 0.97400004 2.3397611e-38
-0.20273143 0.14348571 0.97200006 2.3397608e-38
-0.20088001 0.14348571 0.97200006 2.3397965e-38
-0.19902858 0.14348571 0.97200006 2.3396529e-38
-0.19717716 0.14348571 0.97200006 2.3395453e-38
-0.19532572 0.14348571 0.97200006 2.3396529e-38
-0.19347429 0.14348571 0.97200006 2.3397605e-38
-0.19162287 0.14348571 0.97200006 2.3397246e-38
-0.18977143 0.14348571 0.97200006 2.3396888e-38
-0.18792 0.14348571 0.97200006 2.3396888e-38
-0.18606858 0.14348571 0.97200006 2.3397246e-38
-0.18421715 0.14348571 0.97200006 2.3397246e-38
-0.18180285 0.14304286 0.96900004 2.3396888e-38
-0.17995714 0.14304286 0.96900004 2.3396888e-38
-0.17811143 0.14304286 0.96900004 2.3396888e-38
-0.17626572 0.14304286 0.96900004 2.3396888e-38
-0.17442 0.14304286 0.96900004 2.3397246e-38
-0.17257428 0.14304286 0.96900004 2.330577e-38
-0.17072858 0.14304286 0.96900004 2.3306487e-38
-0.16888286 0.14304286 0.96900004 2.3306846e-38
-0.16703714 0.14304286 0.96900004 2.33994e-38
-0.16519143 0.14304286 0.96900004 2.3400478e-38
-0.16385144 0.14348571 0.97200006 2.3401554e-38
-0.16233334 0.14378095 0.97400004 2.339976e-38
-0.16047809 0.14378095 0.97400004 2.3399402e-38
-0.15911144 0.14422382 0.97700006 2.339976e-38
-0.15821621 0.14510953 0.98300004 2.3400476e-38
-0.15634382 0.14510953 0.98300004 2.3119229e-38
-0.15478572 0.14540477 0.98500007 2.2933764e-38
-0.15290953 0.14540477 0.98500007 2.2750093e-38
-0.15103334 0.14540477 0.98500007 2.2566424e-38
-0.14915715 0.14540477 0.98500007 2.229056e-38
-0.14728096 0.14540477 0.98500007 2.2014734e-38
-0.20500381 0.14563619 0.97400004 2.3396902e-38
-0.20314859 0.14563619 0.97400004 2.33994e-38
-0.20088001 0.14533715 0.97200006 2.3399399e-38
-0.19902858 0.14533715 0.97200006 2.3399399e-38
-0.19717716 0.14533715 0.97200006 2.3396529e-38
-0.19532572 0.14533715 0.97200006 2.3396888e-38
-0.19347429 0.14533715 0.97200006 2.3397605e-38
-0.19162287 0.14533715 0.97200006 2.3399042e-38
-0.18977143 0.14533715 0.97200006 2.3398325e-38
-0.18792 0.14533715 0.97200006 2.3397609e-38
-0.18549429 0.14488858 0.96900004 2.3397609e-38
-0.18364857 0.14488858 0.96900004 2.339797e-38
-0.18180285 0.14488858 0.96900004 2.3397967e-38
-0.17995714 0.14488858 0.96900004 2.3397964e-38
-0.17811143 0.14488858 0.96900004 2.3398683e-38
-0.17626572 0.14488858 0.96900004 2.3399762e-38
-0.17442 0.14488858 0.96900004 2.3400479e-38
-0.17257428 0.14488858 0.96900004 2.3401555e-38
-0.17072858 0.14488858 0.96900004 2.3401195e-38
-0.16888286 0.14488858 0.96900004 2.3401194e-38
-0.16703714 0.14488858 0.96900004 2.3401554e-38
-0.16570286 0.14533715 0.97200006 2.3401914e-38
-0.16385144 0.14533715 0.97200006 2.3400837e-38
-0.16233334 0.14563619 0.97400004 2.3400118e-38
-0.16047809 0.14563619 0.97400004 2.3398324e-38
-0.15911144 0.14608477 0.97700006 2.3396889e-38
-0.15821621 0.14698191 0.98300004 2.3395812e-38
-0.15666191 0.14728096 0.98500007 2.33029e-38
-0.15525715 0.14772953 0.98800004 2.3210706e-38
-0.15337524 0.14772953 0.98800004 2.293484e-38
-0.15103334 0.14728096 0.98500007 2.2658259e-38
-0.20935716 0.14794572 0.97700006 2.0819844e-38
-0.20813334 0.14840001 0.98000002 2.192362e-38
-0.20563525 0.14794572 0.97700006 2.3027416e-38
-0.20314859 0.14749144 0.97400004 2.3027393e-38
-0.20129333 0.14749144 0.97400004 2.3119588e-38
-0.19902858 0.14718857 0.97200006 2.3212499e-38
-0.19717716 0.14718857 0.97200006 2.3397605e-38
-0.19532572 0.14718857 0.97200006 2.3397605e-38
-0.19347429 0.14718857 0.97200006 2.3397607e-38
-0.19162287 0.14718857 0.97200006 2.3397967e-38
-0.18977143 0.14718857 0.97200006 2.3402633e-38
-0.18734001 0.14673428 0.96900004 2.3402279e-38
-0.18549429 0.14673428 0.96900004 2.340192e-38
-0.18364857 0.14673428 0.96900004 2.3398334e-38
-0.18180285 0.14673428 0.96900004 2.3398687e-38
-0.17995714 0.14673428 0.96900004 2.3398683e-38
-0.17811143 0.14673428 0.96900004 2.3401555e-38
-0.17626572 0.14673428 0.96900004 2.3306496e-38
-0.17442 0.14673428 0.96900004 2.331367e-38
-0.17257428 0.14673428 0.96900004 2.3311519e-38
-0.17072858 0.14673428 0.96900004 2.3401198e-38
-0.16888286 0.14673428 0.96900004 2.3310077e-38
-0.16755429 0.14718857 0.97200006 2.3310796e-38
-0.16570286 0.14718857 0.97200006 2.3309364e-38
-0.16385144 0.14718857 0.97200006 2.3308284e-38
-0.16233334 0.14749144 0.97400004 2.3306846e-38
-0.16097239 0.14794572 0.97700006 2.3397246e-38
-0.15911144 0.14794572 0.97700006 2.3397246e-38
-0.15821621 0.1488543 0.98300004 2.3397605e-38
-0.15666191 0.14915715 0.98500007 2.3211064e-38
-0.15525715 0.14961144 0.98800004 2.3119588e-38
-0.15337524 0.14961144 0.98800004 2.2842287e-38
-0.15149334 0.14961144 0.98800004 2.2658259e-38
-0.20999999 0.15026666 0.98000002 2.0544711e-38
-0.20749621 0.14980668 0.97700006 2.1555221e-38
-0.20563525 0.14980668 0.97700006 2.2657572e-38
-0.20377429 0.14980668 0.97700006 2.2749734e-38
-0.20129333 0.14934668 0.97400004 2.2842646e-38
-0.1994381 0.14934668 0.97400004 2.3116718e-38
-0.19717716 0.14904 0.97200006 2.3397246e-38
-0.19532572 0.14904 0.97200006 2.3397605e-38
-0.19347429 0.14904 0.97200006 2.3397246e-38
-0.19162287 0.14904 0.97200006 2.3397248e-38
-0.18977143 0.14904 0.97200006 2.3397967e-38
-0.18792 0.14904 0.97200006 2.3399044e-38
-0.18606858 0.14904 0.97200006 2.3398686e-38
-0.18364857 0.14858 0.96900004 2.3398687e-38
-0.18180285 0.14858 0.96900004 2.3399043e-38
-0.17995714 0.14858 0.96900004 2.3399758e-38
-0.17811143 0.14858 0.96900004 2.3398324e-38
-0.17626572 0.14858 0.96900004 2.3305056e-38
-0.17442 0.14858 0.96900004 2.3304339e-38
-0.17257428 0.14858 0.96900004 2.330398e-38
-0.17072858 0.14858 0.96900004 2.3396891e-38
-0.16888286 0.14858 0.96900004 2.330613e-38
-0.16755429 0.14904 0.97200006 2.3305771e-38
-0.16570286 0.14904 0.97200006 2.3305414e-38
-0.16385144 0.14904 0.97200006 2.3305412e-38
-0.16233334 0.14934668 0.97400004 2.330577e-38
-0.16097239 0.14980668 0.97700006 2.3397605e-38
-0.1596 0.15026666 0.98000002 2.3397964e-38
-0.15821621 0.15072666 0.98300004 2.3397964e-38
-0.15666191 0.15103334 0.98500007 2.3211423e-38
-0.15525715 0.15149334 0.98800004 2.302847e-38
-0.15290953 0.15103334 0.98500007 2.284157e-38
-0.15103334 0.15103334 0.98500007 2.2658263e-38
-0.20999999 0.15213333 0.98000002 2.0912786e-38
-0.20813334 0.15213333 0.98000002 2.1739272e-38
-0.20626667 0.15213333 0.98000002 2.2657942e-38
-0.20377429 0.15166762 0.97700006 2.2842646e-38
-0.20129333 0.15120192 0.97400004 2.3119229e-38
-0.20005238 0.15166762 0.97700006 2.3212141e-38
-0.19758286 0.15120192 0.97400004 2.3396888e-38
-0.19572763 0.15120192 0.97400004 2.3396529e-38
-0.19347429 0.15089144 0.97200006 2.3396529e-38
-0.19162287 0.15089144 0.97200006 2.3396888e-38
-0.18977143 0.15089144 0.97200006 2.3396888e-38
-0.18792 0.15089144 0.97200006 2.3398323e-38
-0.18606858 0.15089144 0.97200006 2.339904e-38
-0.18421715 0.15089144 0.97200006 2.3306846e-38
-0.18180285 0.15042572 0.96900004 2.3305411e-38
-0.17995714 0.15042572 0.96900004 2.3307563e-38
-0.17811143 0.15042572 0.96900004 2.3398323e-38
-0.17681144 0.15089144 0.97200006 2.330577e-38
-0.17496 0.15089144 0.97200006 2.3304693e-38
-0.17310858 0.15089144 0.97200006 2.3305052e-38
-0.17125715 0.15089144 0.97200006 2.3397246e-38
-0.16940571 0.15089144 0.97200006 2.3306128e-38
-0.16755429 0.15089144 0.97200006 2.3306487e-38
-0.16570286 0.15089144 0.97200006 2.3306487e-38
-0.16418858 0.15120192 0.97400004 2.3306846e-38
-0.16283333 0.15166762 0.97700006 2.3307205e-38
-0.16097239 0.15166762 0.97700006 2.3400475e-38
-0.1596 0.15213333 0.98000002 2.3397607e-38
-0.15821621 0.15259905 0.98300004 2.3398323e-38
-0.15666191 0.15290953 0.98500007 2.3303259e-38
-0.15290953 0.15290953 0.98500007 2.2841929e-38
-0.20813334 0.154 0.98000002 2.2015151e-38
-0.20626667 0.154 0.98000002 2.2658308e-38
-0.20377429 0.15352859 0.97700006 2.3028828e-38
-0.20191334 0.15352859 0.97700006 2.339617e-38
-0.20005238 0.15352859 0.97700006 2.339653e-38
-0.19758286 0.15305714 0.97400004 2.3396529e-38
-0.19572763 0.15305714 0.97400004 2.3396888e-38
-0.19347429 0.15274286 0.97200006 2.3397246e-38
-0.19162287 0.15274286 0.97200006 2.3397605e-38
-0.18977143 0.15274286 0.97200006 2.3397605e-38
-0.18792 0.15274286 0.97200006 2.3397964e-38
-0.18606858 0.15274286 0.97200006 2.339904e-38
-0.18421715 0.15274286 0.97200006 2.3307205e-38
-0.18180285 0.15227143 0.96900004 2.3307205e-38
-0.18051429 0.15274286 0.97200006 2.3307205e-38
-0.17811143 0.15227143 0.96900004 2.3398681e-38
-0.17681144 0.15274286 0.97200006 2.3398323e-38
-0.17496 0.15274286 0.97200006 2.3398323e-38
-0.17310858 0.15274286 0.97200006 2.3398681e-38
-0.17125715 0.15274286 0.97200006 2.3398681e-38
-0.16940571 0.15274286 0.97200006 2.339904e-38
-0.16789906 0.15305714 0.97400004 2.3399399e-38
-0.16604382 0.15305714 0.97400004 2.3400118e-38
-0.16418858 0.15305714 0.97400004 2.3399758e-38
-0.16283333 0.15352859 0.97700006 2.3399399e-38
-0.16097239 0.15352859 0.97700006 2.3399758e-38
-0.1596 0.154 0.98000002 2.3397246e-38
-0.15821621 0.15447143 0.98300004 2.3397964e-38
-0.15572858 0.15572858 0.99100006 2.3396539e-38
-0.15384096 0.15572858 0.99100006 2.2934503e-38
-0.15195334 0.15572858 0.99100006 2.2566452e-38
-0.20877048 0.15634382 0.98300004 2.2015526e-38
-0.20689811 0.15634382 0.98300004 2.2383526e-38
-0.20502572 0.15634382 0.98300004 2.2844799e-38
-0.20253333 0.15586667 0.98000002 2.3397248e-38
-0.20066667 0.15586667 0.98000002 2.3397608e-38
-0.19758286 0.15491238 0.97400004 2.3397965e-38
-0.19572763 0.15491238 0.97400004 2.3397965e-38
-0.19387239 0.15491238 0.97400004 2.3397965e-38
-0.19162287 0.15459429 0.97200006 2.3397607e-38
-0.18977143 0.15459429 0.97200006 2.3397605e-38
-0.18792 0.15459429 0.97200006 2.3397964e-38
-0.18606858 0.15459429 0.97200006 2.339904e-38
-0.18421715 0.15459429 0.97200006 2.3307206e-38
-0.18236572 0.15459429 0.97200006 2.3307563e-38
-0.18051429 0.15459429 0.97200006 2.3307205e-38
-0.17866287 0.15459429 0.97200006 2.339904e-38
-0.17681144 0.15459429 0.97200006 2.3399042e-38
-0.17496 0.15459429 0.97200006 2.33994e-38
-0.17310858 0.15459429 0.97200006 2.33994e-38
-0.17160952 0.15491238 0.97400004 2.3399759e-38
-0.16975428 0.15491238 0.97400004 2.3399759e-38
-0.16789906 0.15491238 0.97400004 2.3399759e-38
-0.16604382 0.15491238 0.97400004 2.3400478e-38
-0.16418858 0.15491238 0.97400004 2.340227e-38
-0.16283333 0.15538953 0.97700006 2.3400118e-38
-0.16146667 0.15586667 0.98000002 2.3399399e-38
-0.1596 0.15586667 0.98000002 2.3398323e-38
-0.15821621 0.15634382 0.98300004 2.3397605e-38
-0.15384096 0.1576162 0.99100006 2.2933447e-38
-0.15195334 0.1576162 0.99100006 2.2566473e-38
-0.20919526 0.1585381 0.98500007 2.2015887e-38
-0.20731905 0.1585381 0.98500007 2.2199862e-38
-0.20502572 0.15821621 0.98300004 2.2752616e-38
-0.20253333 0.15773334 0.98000002 2.3397611e-38
-0.20066667 0.15773334 0.98000002 2.3397965e-38
-0.19387239 0.15676762 0.97400004 2.3398323e-38
-0.19201715 0.15676762 0.97400004 2.3398323e-38
-0.18977143 0.15644571 0.97200006 2.3398323e-38
-0.18792 0.15644571 0.97200006 2.3398323e-38
-0.18606858 0.15644571 0.97200006 2.3399758e-38
-0.18421715 0.15644571 0.97200006 2.3400118e-38
-0.18236572 0.15644571 0.97200006 2.3399758e-38
-0.18051429 0.15644571 0.97200006 2.3399758e-38
-0.17866287 0.15644571 0.97200006 2.339904e-38
-0.17717525 0.15676762 0.97400004 2.339904e-38
-0.17532001 0.15676762 0.97400004 2.339904e-38
-0.17346476 0.15676762 0.97400004 2.3399758e-38
-0.17160952 0.15676762 0.97400004 2.3399758e-38
-0.17027715 0.15725048 0.97700006 2.3399758e-38
-0.16841619 0.15725048 0.97700006 2.3400475e-38
-0.16604382 0.15676762 0.97400004 2.3401194e-38
-0.16469429 0.15725048 0.97700006 2.3400835e-38
-0.16283333 0.15725048 0.97700006 2.3400835e-38
-0.16097239 0.15725048 0.97700006 2.3399759e-38
-0.1596 0.15773334 0.98000002 2.339904e-38
-0.15821621 0.15821621 0.98300004 2.3398323e-38
-0.1576162 0.15950382 0.99100006 2.3396888e-38
-0.15572858 0.15950382 0.99100006 2.3396899e-38
-0.15384096 0.15950382 0.99100006 2.293271e-38
-0.15241332 0.15998667 0.99400002 2.2565381e-38
-0.15052 0.15998667 0.99400002 2.2381721e-38
-0.20919526 0.16041429 0.98500007 2.1831862e-38
-0.20731905 0.16041429 0.98500007 2.20162e-38
-0.20502572 0.16008857 0.98300004 2.2659356e-38
-0.20315334 0.16008857 0.98300004 2.3397975e-38
-0.20128095 0.16008857 0.98300004 2.3397964e-38
-0.1988 0.1596 0.98000002 2.3397964e-38
-0.19693333 0.1596 0.98000002 2.3398323e-38
-0.19201715 0.15862286 0.97400004 2.3398323e-38
-0.19016191 0.15862286 0.97400004 2.3398681e-38
-0.18830666 0.15862286 0.97400004 2.339904e-38
-0.18645144 0.15862286 0.97400004 2.3400475e-38
-0.1845962 0.15862286 0.97400004 2.33994e-38
-0.18274096 0.15862286 0.97400004 2.3402629e-38
-0.18144287 0.15911144 0.97700006 2.3399759e-38
-0.17826667 0.1596 0.98000002 2.3398681e-38
-0.17586002 0.15911144 0.97700006 2.3398681e-38
-0.17399906 0.15911144 0.97700006 2.3399758e-38
-0.17213811 0.15911144 0.97700006 2.3399399e-38
-0.1708 0.1596 0.98000002 2.3400116e-38
-0.16841619 0.15911144 0.97700006 2.3401192e-38
-0.16655524 0.15911144 0.97700006 2.3400475e-38
-0.16469429 0.15911144 0.97700006 2.3399759e-38
-0.16283333 0.15911144 0.97700006 2.3401195e-38
-0.16146667 0.1596 0.98000002 2.340227e-38
-0.16008857 0.16008857 0.98300004 2.3399042e-38
-0.15821621 0.16008857 0.98300004 2.33994e-38
-0.1576162 0.16139144 0.99100006 2.3397248e-38
-0.15572858 0.16139144 0.99100006 2.3397608e-38
-0.15430667 0.16188 0.99400002 2.2933768e-38
-0.15241332 0.16188 0.99400002 2.2567518e-38
-0.15052 0.16188 0.99400002 2.2381351e-38
-0.14862667 0.16188 0.99400002 2.2198779e-38
-0.20919526 0.16229048 0.98500007 2.1739666e-38
-0.20731905 0.16229048 0.98500007 2.1831445e-38
-0.20502572 0.16196096 0.98300004 2.2566433e-38
-0.20315334 0.16196096 0.98300004 2.3397611e-38
-0.20128095 0.16196096 0.98300004 2.3397964e-38
-0.1988 0.16146667 0.98000002 2.3397964e-38
-0.19693333 0.16146667 0.98000002 2.3397964e-38
-0.19506668 0.16146667 0.98000002 2.3397964e-38
-0.19319999 0.16146667 0.98000002 2.3398323e-38
-0.18888667 0.16097239 0.97700006 2.3399759e-38
-0.18702573 0.16097239 0.97700006 2.33994e-38
-0.18516476 0.16097239 0.97700006 2.339904e-38
-0.18330382 0.16097239 0.97700006 2.3399399e-38
-0.18200001 0.16146667 0.98000002 2.3399758e-38
-0.18013333 0.16146667 0.98000002 2.33994e-38
-0.17826667 0.16146667 0.98000002 2.33994e-38
-0.17640001 0.16146667 0.98000002 2.33994e-38
-0.17453334 0.16146667 0.98000002 2.3399758e-38
-0.17213811 0.16097239 0.97700006 2.3399758e-38
-0.1708 0.16146667 0.98000002 2.3400476e-38
-0.16841619 0.16097239 0.97700006 2.3400116e-38
-0.16655524 0.16097239 0.97700006 2.3400116e-38
-0.16469429 0.16097239 0.97700006 2.3400118e-38
-0.16283333 0.16097239 0.97700006 2.3401554e-38
-0.16146667 0.16146667 0.98000002 2.3400835e-38
-0.16008857 0.16196096 0.98300004 2.3399399e-38
-0.1585381 0.16229048 0.98500007 2.3398681e-38
-0.15620001 0.16377334 0.99400002 2.3397252e-38
-0.15430667 0.16377334 0.99400002 2.3026686e-38
-0.15241332 0.16377334 0.99400002 2.2659712e-38
-0.15052 0.16377334 0.99400002 2.2381346e-38
-0.14862667 0.16377334 0.99400002 2.2198064e-38
-0.20919526 0.16416667 0.98500007 2.1647829e-38
-0.20731905 0.16416667 0.98500007 2.1647769e-38
-0.20544286 0.16416667 0.98500007 2.2474587e-38
-0.20315334 0.16383334 0.98300004 2.3397605e-38
-0.20128095 0.16383334 0.98300004 2.3396888e-38
-0.19940858 0.16383334 0.98300004 2.3396529e-38
-0.19693333 0.16333333 0.98000002 2.3397605e-38
-0.19506668 0.16333333 0.98000002 2.3397964e-38
-0.19319999 0.16333333 0.98000002 2.3398323e-38
-0.19133334 0.16333333 0.98000002 2.3398683e-38
-0.18946667 0.16333333 0.98000002 2.3399403e-38
-0.18702573 0.16283333 0.97700006 2.33994e-38
-0.18516476 0.16283333 0.97700006 2.3399399e-38
-0.18330382 0.16283333 0.97700006 2.3399758e-38
-0.18200001 0.16333333 0.98000002 2.3399758e-38
-0.18013333 0.16333333 0.98000002 2.3399759e-38
-0.17826667 0.16333333 0.98000002 2.3399762e-38
-0.17640001 0.16333333 0.98000002 2.3400119e-38
-0.17453334 0.16333333 0.98000002 2.3399759e-38
-0.17266667 0.16333333 0.98000002 2.3400118e-38
-0.1708 0.16333333 0.98000002 2.339976e-38
-0.16841619 0.16283333 0.97700006 2.33994e-38
-0.16655524 0.16283333 0.97700006 2.3400116e-38
-0.16520001 0.16333333 0.98000002 2.3400476e-38
