# .PCD v0.7 - Point Cloud Data file format
VERSION 0.7
FIELDS x y z rgb
SIZE 4 4 4 4
TYPE F F F F
COUNT 1 1 1 1
WIDTH 1074
HEIGHT 1
VIEWPOINT 0 0 0 1 0 0 0
POINTS 1074
DATA ascii
0.095506661 0.061921902 1.102 2.3416178e-38
0.09787143 0.062090475 1.105 2.3416177e-38
0.099976189 0.062090475 1.105 2.3416541e-38
0.10208096 0.062090475 1.105 2.3416548e-38
0.10418572 0.062090475 1.105 2.3416548e-38
0.10629047 0.062090475 1.105 2.3416549e-38
0.10839524 0.062090475 1.105 2.3416548e-38
0.1105 0.062090475 1.105 2.3325071e-38
0.11470952 0.062090475 1.105 2.3325789e-38
0.11891905 0.062090475 1.105 2.3417603e-38
0.12146191 0.062315244 1.1090001 2.3417613e-38
0.12357429 0.062315244 1.1090001 2.3324711e-38
0.12523332 0.062090475 1.105 2.3324712e-38
0.1273381 0.062090475 1.105 2.3325431e-38
0.12944287 0.062090475 1.105 2.3417621e-38
0.13119048 0.061921902 1.102 2.3323631e-38
0.13328952 0.061921902 1.102 2.3321817e-38
0.13538857 0.061921902 1.102 2.3322158e-38
0.13698858 0.061697148 1.098 2.3322529e-38
0.13908 0.061697148 1.098 2.3321466e-38
0.14078571 0.061528575 1.095 2.3318949e-38
0.14287142 0.061528575 1.095 2.3318226e-38
0.14442763 0.061303813 1.0910001 2.3409686e-38
0.14650573 0.061303813 1.0910001 2.3317835e-38
0.14858383 0.061303813 1.0910001 2.3317122e-38
0.15024763 0.06113524 1.0880001 2.3316408e-38
0.15339907 0.060741913 1.0810001 2.3410056e-38
0.15545811 0.060741913 1.0810001 2.341037e-38
0.080006666 0.063381903 1.0910001 2.3321813e-38
0.082385719 0.063614286 1.095 2.3322179e-38
0.084471427 0.063614286 1.095 2.3322546e-38
0.086557142 0.063614286 1.095 2.3415455e-38
0.088885717 0.063788578 1.098 2.3416171e-38
0.09097714 0.063788578 1.098 2.3415811e-38
0.093407623 0.064020954 1.102 2.3415809e-38
0.095506661 0.064020954 1.102 2.3415811e-38
0.09787143 0.064195238 1.105 2.3416172e-38
0.099976189 0.064195238 1.105 2.3416175e-38
0.10667524 0.064427622 1.1090001 2.341654e-38
0.10878763 0.064427622 1.1090001 2.3416534e-38
0.11301239 0.064427622 1.1090001 2.3323605e-38
0.11681429 0.064195238 1.105 2.3417585e-38
0.12146191 0.064427622 1.1090001 2.341724e-38
0.12357429 0.064427622 1.1090001 2.3416535e-38
0.12523332 0.064195238 1.105 2.3416538e-38
0.1273381 0.064195238 1.105 2.3417258e-38
0.12944287 0.064195238 1.105 2.3417256e-38
0.13119048 0.064020954 1.102 2.3416177e-38
0.13328952 0.064020954 1.102 2.3415096e-38
0.13538857 0.064020954 1.102 2.3322539e-38
0.13698858 0.063788578 1.098 2.332218e-38
0.13908 0.063788578 1.098 2.3228194e-38
0.14078571 0.063614286 1.095 2.3227829e-38
0.14287142 0.063614286 1.095 2.3317506e-38
0.14442763 0.063381903 1.0910001 2.3409687e-38
0.14650573 0.063381903 1.0910001 2.3410392e-38
0.14858383 0.063381903 1.0910001 2.3409682e-38
0.15024763 0.063207619 1.0880001 2.3408973e-38
0.15232 0.063207619 1.0880001 2.3409673e-38
0.15439239 0.063207619 1.0880001 2.3410733e-38
0.15646477 0.063207619 1.0880001 2.3403526e-38
0.080300003 0.065700002 1.095 2.3322877e-38
0.082385719 0.065700002 1.095 2.3323244e-38
0.084471427 0.065700002 1.095 2.3322894e-38
0.086557142 0.065700002 1.095 2.3414732e-38
0.088885717 0.065880001 1.098 2.3414736e-38
0.093407623 0.066119999 1.102 2.3323604e-38
0.095506661 0.066119999 1.102 2.3323968e-38
0.09787143 0.066299997 1.105 2.3323974e-38
0.099976189 0.066299997 1.105 2.3417244e-38
0.10245048 0.066540003 1.1090001 2.3416887e-38
0.10456286 0.066540003 1.1090001 2.3416528e-38
0.10667524 0.066540003 1.1090001 2.341653e-38
0.10878763 0.066540003 1.1090001 2.3416879e-38
0.11090001 0.066540003 1.1090001 2.3323957e-38
0.11301239 0.066540003 1.1090001 2.3322859e-38
0.11512477 0.066540003 1.1090001 2.3322477e-38
0.11723715 0.066540003 1.1090001 2.3417555e-38
0.11934953 0.066540003 1.1090001 2.3325377e-38
0.12146191 0.066540003 1.1090001 2.3325391e-38
0.12357429 0.066540003 1.1090001 2.3324689e-38
0.12523332 0.066299997 1.105 2.3323975e-38
0.1273381 0.066299997 1.105 2.3324697e-38
0.12944287 0.066299997 1.105 2.3325412e-38
0.13119048 0.066119999 1.102 2.332541e-38
0.13328952 0.066119999 1.102 2.3325779e-38
0.13538857 0.066119999 1.102 2.3321844e-38
0.13698858 0.065880001 1.098 2.3229997e-38
0.13908 0.065880001 1.098 2.3228553e-38
0.14078571 0.065700002 1.095 2.3320381e-38
0.14234953 0.065460004 1.0910001 2.3320733e-38
0.14442763 0.065460004 1.0910001 2.3412917e-38
0.14650573 0.065460004 1.0910001 2.3411831e-38
0.14858383 0.065460004 1.0910001 2.3410766e-38
0.15066192 0.065460004 1.0910001 2.3411495e-38
0.15232 0.065280005 1.0880001 2.3412528e-38
0.15439239 0.065280005 1.0880001 2.2669909e-38
0.15646477 0.065280005 1.0880001 2.1927674e-38
0.080300003 0.067785718 1.095 2.3417599e-38
0.082385719 0.067785718 1.095 2.3416526e-38
0.084471427 0.067785718 1.095 2.3415451e-38
0.086557142 0.067785718 1.095 2.3415089e-38
0.088885717 0.067971431 1.098 2.3414729e-38
0.09097714 0.067971431 1.098 2.3414725e-38
0.093407623 0.068219043 1.102 2.3322528e-38
0.095506661 0.068219043 1.102 2.3322532e-38
0.09787143 0.068404764 1.105 2.3322894e-38
0.099976189 0.068404764 1.105 2.3414372e-38
0.10245048 0.068652384 1.1090001 2.3414014e-38
0.10456286 0.068652384 1.1090001 2.3414007e-38
0.10667524 0.068652384 1.1090001 2.3414358e-38
0.10878763 0.068652384 1.1090001 2.3413999e-38
0.11090001 0.068652384 1.1090001 2.341364e-38
0.11301239 0.068652384 1.1090001 2.3413629e-38
0.11512477 0.068652384 1.1090001 2.3413977e-38
0.11723715 0.068652384 1.1090001 2.3413988e-38
0.11934953 0.068652384 1.1090001 2.3322163e-38
0.12146191 0.068652384 1.1090001 2.3321457e-38
0.12357429 0.068652384 1.1090001 2.3321108e-38
0.12523332 0.068404764 1.105 2.3321829e-38
0.1273381 0.068404764 1.105 2.3322909e-38
0.12944287 0.068404764 1.105 2.332434e-38
0.13154761 0.068404764 1.105 2.3320748e-38
0.13328952 0.068219043 1.102 2.3321111e-38
0.13538857 0.068219043 1.102 2.322964e-38
0.13698858 0.067971431 1.098 2.3229271e-38
0.13908 0.067971431 1.098 2.3320738e-38
0.14078571 0.067785718 1.095 2.3412214e-38
0.14442763 0.067538105 1.0910001 2.3413287e-38
0.14650573 0.067538105 1.0910001 2.3414363e-38
0.14858383 0.067538105 1.0910001 2.3415411e-38
0.15066192 0.067538105 1.0910001 2.3416818e-38
0.15274002 0.067538105 1.0910001 2.3400296e-38
0.1548181 0.067538105 1.0910001 2.1914405e-38
0.1568962 0.067538105 1.0910001 2.0546198e-38
0.082611434 0.070062861 1.098 2.3325777e-38
0.084702857 0.070062861 1.098 2.3325056e-38
0.086794287 0.070062861 1.098 2.3416524e-38
0.088885717 0.070062861 1.098 2.3415798e-38
0.09097714 0.070062861 1.098 2.3415439e-38
0.093407623 0.070318095 1.102 2.3323964e-38
0.095766664 0.070509523 1.105 2.3319661e-38
0.09787143 0.070509523 1.105 2.3323249e-38
0.099976189 0.070509523 1.105 2.3415445e-38
0.10245048 0.070764773 1.1090001 2.341473e-38
0.10456286 0.070764773 1.1090001 2.3413996e-38
0.10667524 0.070764773 1.1090001 2.3413263e-38
0.10878763 0.070764773 1.1090001 2.3412554e-38
0.11090001 0.070764773 1.1090001 2.3320729e-38
0.11301239 0.070764773 1.1090001 2.3321087e-38
0.11512477 0.070764773 1.1090001 2.3320729e-38
0.11723715 0.070764773 1.1090001 2.3412214e-38
0.11934953 0.070764773 1.1090001 2.3320028e-38
0.12146191 0.070764773 1.1090001 2.3320033e-38
0.12357429 0.070764773 1.1090001 2.3320758e-38
0.12523332 0.070509523 1.105 2.3321836e-38
0.1273381 0.070509523 1.105 2.3322556e-38
0.12944287 0.070509523 1.105 2.3323626e-38
0.13154761 0.070509523 1.105 2.3322545e-38
0.13328952 0.070318095 1.102 2.3321467e-38
0.13538857 0.070318095 1.102 2.3321107e-38
0.13698858 0.070062861 1.098 2.3321097e-38
0.13908 0.070062861 1.098 2.3322524e-38
0.14078571 0.069871433 1.095 2.3415798e-38
0.14234953 0.069616199 1.0910001 2.341652e-38
0.14442763 0.069616199 1.0910001 2.3417605e-38
0.14650573 0.069616199 1.0910001 2.2499259e-38
0.14858383 0.069616199 1.0910001 2.1580836e-38
0.15066192 0.069616199 1.0910001 2.0087365e-38
0.15274002 0.069616199 1.0910001 1.8593964e-38
0.1548181 0.069616199 1.0910001 1.9801817e-38
0.095506661 0.072417147 1.102 2.3416541e-38
0.09787143 0.07261429 1.105 2.3415458e-38
0.099976189 0.07261429 1.105 2.3415822e-38
0.10245048 0.072877146 1.1090001 2.3416545e-38
0.10456286 0.072877146 1.1090001 2.3414735e-38
0.10667524 0.072877146 1.1090001 2.3410773e-38
0.10878763 0.072877146 1.1090001 2.34097e-38
0.11090001 0.072877146 1.1090001 2.331715e-38
0.11301239 0.072877146 1.1090001 2.3321813e-38
0.11512477 0.072877146 1.1090001 2.3318943e-38
0.11723715 0.072877146 1.1090001 2.3410787e-38
0.11934953 0.072877146 1.1090001 2.331932e-38
0.12102381 0.07261429 1.105 2.3320039e-38
0.12312857 0.07261429 1.105 2.3320758e-38
0.12523332 0.07261429 1.105 2.3415466e-38
0.1273381 0.07261429 1.105 2.3416904e-38
0.12909143 0.072417147 1.102 2.3416901e-38
0.13119048 0.072417147 1.102 2.3417257e-38
0.13328952 0.072417147 1.102 2.3417251e-38
0.13538857 0.072417147 1.102 2.3417606e-38
0.13748762 0.072417147 1.102 2.3417599e-38
0.13908 0.072154284 1.098 2.3417592e-38
0.14117144 0.072154284 1.098 2.3417568e-38
0.14234953 0.071694292 1.0910001 2.3417546e-38
0.14442763 0.071694292 1.0910001 2.340823e-38
0.14650573 0.071694292 1.0910001 2.1562204e-38
0.14306666 0.068080001 1.036 1.6718079e-38
0.14504001 0.068080001 1.036 1.380988e-38
0.07794667 0.070053332 1.036 1.7856525e-38
0.09787143 0.074719049 1.105 2.2958447e-38
0.099976189 0.074719049 1.105 2.3417633e-38
0.10245048 0.074989527 1.1090001 2.3415849e-38
0.10456286 0.074989527 1.1090001 2.3415832e-38
0.10667524 0.074989527 1.1090001 2.3416534e-38
0.10878763 0.074989527 1.1090001 2.3417607e-38
0.11090001 0.074989527 1.1090001 2.3323975e-38
0.11301239 0.074989527 1.1090001 2.332254e-38
0.11512477 0.074989527 1.1090001 2.332254e-38
0.11723715 0.074989527 1.1090001 2.3414743e-38
0.11934953 0.074989527 1.1090001 2.3323635e-38
0.12102381 0.074719049 1.105 2.3324708e-38
0.12312857 0.074719049 1.105 2.3325064e-38
0.12523332 0.074719049 1.105 2.341762e-38
0.1273381 0.074719049 1.105 2.3417623e-38
0.12909143 0.074516185 1.102 2.3417623e-38
0.13119048 0.074516185 1.102 2.3417623e-38
0.13328952 0.074516185 1.102 2.3417614e-38
0.13538857 0.074516185 1.102 2.2774759e-38
0.13748762 0.074516185 1.102 2.2131905e-38
0.13908 0.074245714 1.098 2.1026287e-38
0.14117144 0.074245714 1.098 2.0012458e-38
0.14306666 0.070053332 1.036 1.5530603e-38
0.14504001 0.070053332 1.036 1.4719957e-38
0.14743905 0.070256196 1.039 1.8242438e-38
0.1494181 0.070256196 1.039 2.1742952e-38
0.15139715 0.070256196 1.039 2.1557133e-38
0.07794667 0.072026663 1.036 1.2400792e-38
0.079688564 0.071818091 1.033 1.3505343e-38
0.081656188 0.071818091 1.033 1.4624586e-38
0.08338096 0.071609534 1.0300001 1.6570707e-38
0.08501143 0.071331434 1.026 1.8511859e-38
0.086965717 0.071331434 1.026 2.0086029e-38
0.088920005 0.071331434 1.026 2.1747691e-38
0.090874285 0.071331434 1.026 2.2582833e-38
0.10456286 0.077101909 1.1090001 2.3416534e-38
0.10667524 0.077101909 1.1090001 2.3417607e-38
0.10878763 0.077101909 1.1090001 2.3417603e-38
0.11090001 0.077101909 1.1090001 2.3417599e-38
0.11301239 0.077101909 1.1090001 2.34176e-38
0.11512477 0.077101909 1.1090001 2.3417603e-38
0.11723715 0.077101909 1.1090001 2.3417605e-38
0.11891905 0.076823808 1.105 2.3417606e-38
0.12102381 0.076823808 1.105 2.341761e-38
0.12312857 0.076823808 1.105 2.3417616e-38
0.12523332 0.076823808 1.105 2.341761e-38
0.1273381 0.076823808 1.105 2.3417603e-38
0.12909143 0.076615237 1.102 2.3414733e-38
0.13119048 0.076615237 1.102 2.3412222e-38
0.13328952 0.076615237 1.102 2.3403947e-38
0.13538857 0.076615237 1.102 2.2110333e-38
0.13748762 0.076615237 1.102 2.0810609e-38
0.13386856 0.071331434 1.026 1.4234942e-38
0.14068475 0.071818091 1.033 1.313683e-38
0.14306666 0.072026663 1.036 1.4435035e-38
0.14504001 0.072026663 1.036 1.5733732e-38
0.14743905 0.072235234 1.039 1.8887794e-38
0.1494181 0.072235234 1.039 2.2113165e-38
0.15139715 0.072235234 1.039 2.1740809e-38
0.073139049 0.07514286 1.052 1.2958875e-38
0.078172378 0.074214287 1.039 1.3132836e-38
0.079920001 0.074000001 1.036 1.3683849e-38
0.081893332 0.074000001 1.036 1.4234879e-38
0.08338096 0.073571436 1.0300001 1.5153252e-38
0.085342862 0.073571436 1.0300001 1.6071669e-38
0.087304763 0.073571436 1.0300001 1.6723907e-38
0.088920005 0.073285721 1.026 1.746832e-38
0.090874285 0.073285721 1.026 1.7754992e-38
0.10456286 0.07921429 1.1090001 1.7965938e-38
0.10667524 0.07921429 1.1090001 1.8152848e-38
0.10878763 0.07921429 1.1090001 1.8339742e-38
0.11301239 0.07921429 1.1090001 1.8716409e-38
0.11470952 0.078928567 1.105 1.8717848e-38
0.11681429 0.078928567 1.105 1.8627441e-38
0.11891905 0.078928567 1.105 1.8532012e-38
0.12102381 0.078928567 1.105 1.8344767e-38
0.13191429 0.073285721 1.026 1.5336902e-38
0.13386856 0.073285721 1.026 1.4234862e-38
0.13635239 0.073571436 1.0300001 1.3224673e-38
0.13831429 0.073571436 1.0300001 1.3228622e-38
0.14068475 0.073785715 1.033 1.3324759e-38
0.14265238 0.073785715 1.033 1.4525794e-38
0.14504001 0.074000001 1.036 1.5829512e-38
0.14701334 0.074000001 1.036 1.8889585e-38
0.1494181 0.074214287 1.039 2.2024201e-38
0.15139715 0.074214287 1.039 2.164934e-38
0.071338102 0.077366672 1.0550001 1.2963542e-38
0.073347628 0.077366672 1.0550001 1.286918e-38
0.07514286 0.077146672 1.052 1.2868459e-38
0.078172378 0.07619334 1.039 1.3968335e-38
0.080151431 0.07619334 1.039 1.3874714e-38
0.081893332 0.075973332 1.036 1.3870778e-38
0.083623812 0.075753331 1.033 1.3775725e-38
0.085342862 0.075533338 1.0300001 1.3683909e-38
0.087304763 0.075533338 1.0300001 1.3500258e-38
0.089266673 0.075533338 1.0300001 1.3316609e-38
0.090874285 0.075240001 1.026 1.2949288e-38
0.092828572 0.075240001 1.026 1.2581946e-38
0.094505712 0.07502 1.023 1.2490112e-38
0.11260476 0.081033334 1.105 1.405455e-38
0.11470952 0.081033334 1.105 1.3965946e-38
0.11681429 0.081033334 1.105 1.3871954e-38
0.11009429 0.07502 1.023 1.3594651e-38
0.11204285 0.07502 1.023 1.3317716e-38
0.11399143 0.07502 1.023 1.3132976e-38
0.11628 0.075240001 1.026 1.3041132e-38
0.11788857 0.07502 1.023 1.2765619e-38
0.12018858 0.075240001 1.026 1.2581948e-38
0.12214286 0.075240001 1.026 1.2765619e-38
0.12409715 0.075240001 1.026 1.2949269e-38
0.12654287 0.075533338 1.0300001 1.3408427e-38
0.12850477 0.075533338 1.0300001 1.3867571e-38
0.13046667 0.075533338 1.0300001 1.3959374e-38
0.13242859 0.075533338 1.0300001 1.4145556e-38
0.13439049 0.075533338 1.0300001 1.4332095e-38
0.13635239 0.075533338 1.0300001 1.4518988e-38
0.13871714 0.075753331 1.033 1.4063392e-38
0.14068475 0.075753331 1.033 1.3605317e-38
0.14306666 0.075973332 1.036 1.4708448e-38
0.14786477 0.076413333 1.0420001 1.8983207e-38
0.14984953 0.076413333 1.0420001 2.2024198e-38
0.069328576 0.079376198 1.0550001 1.6650977e-38
0.071338102 0.079376198 1.0550001 1.2966411e-38
0.073347628 0.079376198 1.0550001 1.3052124e-38
0.07514286 0.079150476 1.052 1.3146474e-38
0.077146672 0.079150476 1.052 1.3418754e-38
0.078398094 0.078398094 1.0420001 1.3784677e-38
0.080151431 0.078172378 1.039 1.3875451e-38
0.082130477 0.078172378 1.039 1.405769e-38
0.083866663 0.07794667 1.036 1.4055901e-38
0.085591428 0.077720955 1.033 1.4146279e-38
0.087559044 0.077720955 1.033 1.3961151e-38
0.089266673 0.077495247 1.0300001 1.3776043e-38
0.091228582 0.077495247 1.0300001 1.3500178e-38
0.092828572 0.077194288 1.026 1.3316507e-38
0.094782859 0.077194288 1.026 1.3316507e-38
0.096737146 0.077194288 1.026 1.3316507e-38
0.098402858 0.076968573 1.023 1.3408343e-38
0.10035143 0.076968573 1.023 1.3500178e-38
0.10650857 0.077194288 1.026 1.4326698e-38
0.10814571 0.076968573 1.023 1.4510369e-38
0.11041714 0.077194288 1.026 1.4418533e-38
0.11204285 0.076968573 1.023 1.4418533e-38
0.11399143 0.076968573 1.023 1.4234862e-38
0.11628 0.077194288 1.026 1.4051191e-38
0.11823429 0.077194288 1.026 1.386752e-38
0.12018858 0.077194288 1.026 1.3683849e-38
0.12214286 0.077194288 1.026 1.3776043e-38
0.12409715 0.077194288 1.026 1.3868238e-38
0.12654287 0.077495247 1.0300001 1.3870391e-38
0.12850477 0.077495247 1.0300001 1.3964742e-38
0.13046667 0.077495247 1.0300001 1.4057299e-38
0.13242859 0.077495247 1.0300001 1.4150224e-38
0.1347819 0.077720955 1.033 1.4149519e-38
0.13674952 0.077720955 1.033 1.4154167e-38
0.13912 0.07794667 1.036 1.3786809e-38
0.14109333 0.07794667 1.036 1.3419525e-38
0.14306666 0.07794667 1.036 1.4897201e-38
0.14545999 0.078172378 1.039 1.6398156e-38
0.14786477 0.078398094 1.0420001 1.9077548e-38
0.14984953 0.078398094 1.0420001 2.1840883e-38
0.069328576 0.081385717 1.0550001 1.6836433e-38
0.071338102 0.081385717 1.0550001 1.3058242e-38
0.073347628 0.081385717 1.0550001 1.3235078e-38
0.07514286 0.081154287 1.052 1.3418754e-38
0.077146672 0.081154287 1.052 1.3510595e-38
0.080382861 0.080382861 1.0420001 1.3876518e-38
0.082130477 0.080151431 1.039 1.4243498e-38
0.083866663 0.079920001 1.036 1.4426809e-38
0.085840002 0.079920001 1.036 1.4609033e-38
0.087559044 0.079688564 1.033 1.4424274e-38
0.089526661 0.079688564 1.033 1.4239171e-38
0.091228582 0.079457149 1.0300001 1.4146261e-38
0.093190484 0.079457149 1.0300001 1.4146981e-38
0.094782859 0.079148576 1.026 1.414806e-38
0.096737146 0.079148576 1.026 1.4147696e-38
0.098691426 0.079148576 1.026 1.3964019e-38
0.10064571 0.079148576 1.026 1.3872188e-38
0.1026 0.079148576 1.026 1.4147698e-38
0.10455429 0.079148576 1.026 1.4420695e-38
0.10650857 0.079148576 1.026 1.4787323e-38
0.10846286 0.079148576 1.026 1.524614e-38
0.11041714 0.079148576 1.026 1.5337615e-38
0.11237143 0.079148576 1.026 1.5521642e-38
0.11432571 0.079148576 1.026 1.5246852e-38
0.11628 0.079148576 1.026 1.506354e-38
0.11823429 0.079148576 1.026 1.4972421e-38
0.12018858 0.079148576 1.026 1.488238e-38
0.12214286 0.079148576 1.026 1.4792338e-38
0.12458096 0.079457149 1.0300001 1.4791979e-38
0.12654287 0.079457149 1.0300001 1.4424636e-38
0.12850477 0.079457149 1.0300001 1.4148053e-38
0.13046667 0.079457149 1.0300001 1.4146977e-38
0.13242859 0.079457149 1.0300001 1.4149502e-38
0.1347819 0.079688564 1.033 1.396728e-38
0.13714667 0.079920001 1.036 1.3879018e-38
0.13952287 0.080151431 1.039 1.3513097e-38
0.14150192 0.080151431 1.039 1.3238005e-38
0.14348096 0.080151431 1.039 1.4994058e-38
0.14588001 0.080382861 1.0420001 1.685949e-38
0.14786477 0.080382861 1.0420001 1.926374e-38
0.14984953 0.080382861 1.0420001 2.1740798e-38
0.071338102 0.083395243 1.0550001 1.3058238e-38
0.073139049 0.083158098 1.052 1.3232208e-38
0.07514286 0.083158098 1.052 1.3509516e-38
0.077146672 0.083158098 1.052 1.3510244e-38
0.078623816 0.082604766 1.0450001 1.3510961e-38
0.080382861 0.082367629 1.0420001 1.3783598e-38
0.082130477 0.082130477 1.039 1.415129e-38
0.084109522 0.082130477 1.039 1.4334235e-38
0.085840002 0.081893332 1.036 1.4517546e-38
0.087813333 0.081893332 1.036 1.4333875e-38
0.089526661 0.081656188 1.033 1.4150567e-38
0.091494285 0.081656188 1.033 1.3965825e-38
0.093190484 0.081419051 1.0300001 1.3873277e-38
0.095152393 0.081419051 1.0300001 1.3782164e-38
0.097114295 0.081419051 1.0300001 1.3691035e-38
0.098691426 0.081102863 1.026 1.3597037e-38
0.10064571 0.081102863 1.026 1.3596687e-38
0.1026 0.081102863 1.026 1.3687813e-38
0.10455429 0.081102863 1.026 1.3778934e-38
0.10650857 0.081102863 1.026 1.4237757e-38
0.10846286 0.081102863 1.026 1.4696932e-38
0.11041714 0.081102863 1.026 1.4512901e-38
0.11237143 0.081102863 1.026 1.4237389e-38
0.11432571 0.081102863 1.026 1.4421414e-38
0.11628 0.081102863 1.026 1.4605444e-38
0.11823429 0.081102863 1.026 1.451361e-38
0.12065715 0.081419051 1.0300001 1.4514327e-38
0.12261906 0.081419051 1.0300001 1.4516838e-38
0.12458096 0.081419051 1.0300001 1.4516118e-38
0.12691143 0.081656188 1.033 1.4057298e-38
0.12887904 0.081656188 1.033 1.359704e-38
0.13084666 0.081656188 1.033 1.3964737e-38
0.13281429 0.081656188 1.033 1.433281e-38
0.13517334 0.081893332 1.036 1.405983e-38
0.13714667 0.081893332 1.036 1.3695704e-38
0.13952287 0.082130477 1.039 1.3514532e-38
0.14150192 0.082130477 1.039 1.3240157e-38
0.14389525 0.082367629 1.0420001 1.518024e-38
0.14588001 0.082367629 1.0420001 1.7137154e-38
0.14786477 0.082367629 1.0420001 1.9354509e-38
0.071338102 0.085404761 1.0550001 1.3052142e-38
0.073139049 0.085161909 1.052 1.3321531e-38
0.07514286 0.085161909 1.052 1.36035e-38
0.078623816 0.084595241 1.0450001 1.3509875e-38
0.080382861 0.084352389 1.0420001 1.3782869e-38
0.082130477 0.084109522 1.039 1.4059808e-38
0.084109522 0.084109522 1.039 1.4244911e-38
0.086088575 0.084109522 1.039 1.4424993e-38
0.087813333 0.083866663 1.036 1.4242756e-38
0.089786664 0.083866663 1.036 1.4058011e-38
0.091494285 0.083623812 1.033 1.3873624e-38
0.093190484 0.08338096 1.0300001 1.3690323e-38
0.095152393 0.08338096 1.0300001 1.3415187e-38
0.097114295 0.08338096 1.0300001 1.3230798e-38
0.098691426 0.083057143 1.026 1.3322275e-38
0.10064571 0.083057143 1.026 1.3412671e-38
0.1026 0.083057143 1.026 1.331832e-38
0.10496191 0.08338096 1.0300001 1.3228281e-38
0.10692382 0.08338096 1.0300001 1.3687822e-38
0.10888572 0.08338096 1.0300001 1.4239188e-38
0.11084762 0.08338096 1.0300001 1.3596693e-38
0.11280953 0.08338096 1.0300001 1.3046035e-38
0.11477143 0.08338096 1.0300001 1.3597764e-38
0.11673334 0.08338096 1.0300001 1.4239535e-38
0.11869525 0.08338096 1.0300001 1.4146622e-38
0.12065715 0.08338096 1.0300001 1.4148057e-38
0.12261906 0.08338096 1.0300001 1.4149492e-38
0.12458096 0.08338096 1.0300001 1.424097e-38
0.12691143 0.083623812 1.033 1.3598125e-38
0.12887904 0.083623812 1.033 1.3048181e-38
0.13122666 0.083866663 1.036 1.3784294e-38
0.1332 0.083866663 1.036 1.4611185e-38
0.13517334 0.083866663 1.036 1.4060902e-38
0.13754381 0.084109522 1.039 1.3605659e-38
0.13952287 0.084109522 1.039 1.342413e-38
0.14191049 0.084352389 1.0420001 1.3328415e-38
0.14389525 0.084352389 1.0420001 1.53668e-38
0.14588001 0.084352389 1.0420001 1.7415545e-38
0.14786477 0.084352389 1.0420001 1.9445276e-38
0.071338102 0.087414287 1.0550001 1.359742e-38
0.073347628 0.087414287 1.0550001 1.3506637e-38
0.07514286 0.087165713 1.052 1.3514171e-38
0.077146672 0.087165713 1.052 1.3328708e-38
0.078623816 0.086585723 1.0450001 1.3233641e-38
0.080382861 0.086337149 1.0420001 1.3600982e-38
0.082367629 0.086337149 1.0420001 1.4060519e-38
0.084109522 0.086088575 1.039 1.4244193e-38
0.086088575 0.086088575 1.039 1.4424634e-38
0.087813333 0.085840002 1.036 1.4240962e-38
0.089786664 0.085840002 1.036 1.4057648e-38
0.091494285 0.085591428 1.033 1.3689948e-38
0.093190484 0.085342862 1.0300001 1.3415175e-38
0.095152393 0.085342862 1.0300001 1.3139687e-38
0.097114295 0.085342862 1.0300001 1.2863114e-38
0.099076197 0.085342862 1.0300001 1.3230467e-38
0.10103811 0.085342862 1.0300001 1.3504163e-38
0.10300001 0.085342862 1.0300001 1.3595982e-38
0.10496191 0.085342862 1.0300001 1.3596344e-38
0.10692382 0.085342862 1.0300001 1.3871494e-38
0.10888572 0.085342862 1.0300001 1.4148427e-38
0.11084762 0.085342862 1.0300001 1.3780359e-38
0.11280953 0.085342862 1.0300001 1.3505212e-38
0.11477143 0.085342862 1.0300001 1.3873271e-38
0.11673334 0.085342862 1.0300001 1.4333163e-38
0.11869525 0.085342862 1.0300001 1.405873e-38
0.12065715 0.085342862 1.0300001 1.3876135e-38
0.12261906 0.085342862 1.0300001 1.4151642e-38
0.1249438 0.085591428 1.033 1.4427154e-38
0.12728 0.085840002 1.036 1.3967982e-38
0.12925333 0.085840002 1.036 1.3509155e-38
0.13122666 0.085840002 1.036 1.3969401e-38
0.1332 0.085840002 1.036 1.4429665e-38
0.13517334 0.085840002 1.036 1.4063052e-38
0.13754381 0.086088575 1.039 1.3791481e-38
0.13992572 0.086337149 1.0420001 1.3422695e-38
0.14191049 0.086337149 1.0420001 1.3049331e-38
0.14430954 0.086585723 1.0450001 1.5827434e-38
0.1463 0.086585723 1.0450001 1.861265e-38
0.071338102 0.089423813 1.0550001 1.4244216e-38
0.073347628 0.089423813 1.0550001 1.3783935e-38
0.07514286 0.089169532 1.052 1.3420545e-38
0.077146672 0.089169532 1.052 1.3145043e-38
0.080382861 0.088321909 1.0420001 1.3509148e-38
0.082367629 0.088321909 1.0420001 1.4151998e-38
0.084109522 0.088067621 1.039 1.4243836e-38
0.086088575 0.088067621 1.039 1.4424996e-38
0.087813333 0.087813333 1.036 1.4241684e-38
0.089786664 0.087813333 1.036 1.4057654e-38
0.091494285 0.087559044 1.033 1.3597759e-38
0.093190484 0.087304763 1.0300001 1.3140026e-38
0.095152393 0.087304763 1.0300001 1.2865248e-38
0.097114295 0.087304763 1.0300001 1.2587955e-38
0.099076197 0.087304763 1.0300001 1.3138977e-38
0.10103811 0.087304763 1.0300001 1.3689615e-38
0.10300001 0.087304763 1.0300001 1.3873272e-38
0.10496191 0.087304763 1.0300001 1.405587e-38
0.10692382 0.087304763 1.0300001 1.4055157e-38
0.10888572 0.087304763 1.0300001 1.4056226e-38
0.11084762 0.087304763 1.0300001 1.3964026e-38
0.11280953 0.087304763 1.0300001 1.3964383e-38
0.11477143 0.087304763 1.0300001 1.4148772e-38
0.11673334 0.087304763 1.0300001 1.4425717e-38
0.11869525 0.087304763 1.0300001 1.3969415e-38
0.12065715 0.087304763 1.0300001 1.3602068e-38
0.12261906 0.087304763 1.0300001 1.4153077e-38
0.1249438 0.087559044 1.033 1.4703015e-38
0.12728 0.087813333 1.036 1.4333523e-38
0.12925333 0.087813333 1.036 1.4060884e-38
0.13122666 0.087813333 1.036 1.415451e-38
0.13358571 0.088067621 1.039 1.4245638e-38
0.13556476 0.088067621 1.039 1.4157041e-38
0.13754381 0.088067621 1.039 1.4064835e-38
0.13992572 0.088321909 1.0420001 1.3421618e-38
0.14231905 0.088576198 1.0450001 1.2867818e-38
0.14472382 0.088830486 1.0480001 1.6288056e-38
0.14672001 0.088830486 1.0480001 1.9810462e-38
0.071338102 0.091433339 1.0550001 1.4524028e-38
0.073347628 0.091433339 1.0550001 1.3879358e-38
0.07514286 0.091173336 1.052 1.3326919e-38
0.077146672 0.091173336 1.052 1.3237244e-38
0.080614291 0.090566672 1.0450001 1.369282e-38
0.082367629 0.090306669 1.0420001 1.4150924e-38
0.084109522 0.090046667 1.039 1.442751e-38
0.086088575 0.090046667 1.039 1.460903e-38
0.088067621 0.090046667 1.039 1.4333525e-38
0.089786664 0.089786664 1.036 1.4149854e-38
0.091760002 0.089786664 1.036 1.36896e-38
0.093733333 0.089786664 1.036 1.3325491e-38
0.095429517 0.089526661 1.033 1.3140389e-38
0.097397141 0.089526661 1.033 1.2956005e-38
0.099076197 0.089266673 1.0300001 1.3414469e-38
0.10103811 0.089266673 1.0300001 1.387471e-38
0.10300001 0.089266673 1.0300001 1.3965816e-38
0.10526761 0.089526661 1.033 1.4149849e-38
0.10723524 0.089526661 1.033 1.4149496e-38
0.10920285 0.089526661 1.033 1.4149132e-38
0.11084762 0.089266673 1.0300001 1.4056216e-38
0.11280953 0.089266673 1.0300001 1.4058367e-38
0.11477143 0.089266673 1.0300001 1.4148766e-38
0.11707333 0.089526661 1.033 1.4243125e-38
0.11869525 0.089266673 1.0300001 1.396799e-38
0.12100857 0.089526661 1.033 1.3784668e-38
0.12297619 0.089526661 1.033 1.4060165e-38
0.1249438 0.089526661 1.033 1.4336029e-38
0.12728 0.089786664 1.036 1.4153074e-38
0.12962763 0.090046667 1.039 1.3970123e-38
0.13160668 0.090046667 1.039 1.3969767e-38
0.13358571 0.090046667 1.039 1.3969776e-38
0.13556476 0.090046667 1.039 1.3972297e-38
0.13794096 0.090306669 1.0420001 1.3974078e-38
0.13992572 0.090306669 1.0420001 1.342126e-38
0.14231905 0.090566672 1.0450001 1.2962169e-38
0.14430954 0.090566672 1.0450001 1.6386e-38
0.1463 0.090566672 1.0450001 1.9906249e-38
0.14829049 0.090566672 1.0450001 2.0548749e-38
0.071338102 0.093442865 1.0550001 1.4794514e-38
0.073347628 0.093442865 1.0550001 1.4053702e-38
0.075357147 0.093442865 1.0550001 1.332907e-38
0.077146672 0.093177147 1.052 1.3329437e-38
0.080614291 0.092557147 1.0450001 1.3785014e-38
0.082367629 0.09229143 1.0420001 1.4243843e-38
0.084352389 0.09229143 1.0420001 1.4519359e-38
0.086337149 0.09229143 1.0420001 1.4884543e-38
0.088067621 0.09202572 1.039 1.4517197e-38
0.090046667 0.09202572 1.039 1.4241688e-38
0.091760002 0.091760002 1.036 1.3873627e-38
0.093733333 0.091760002 1.036 1.3598482e-38
0.095429517 0.091494285 1.033 1.3507367e-38
0.097397141 0.091494285 1.033 1.3414814e-38
0.099364758 0.091494285 1.033 1.3689963e-38
0.10133238 0.091494285 1.033 1.4057298e-38
0.1033 0.091494285 1.033 1.4149126e-38
0.10526761 0.091494285 1.033 1.4241323e-38
0.10723524 0.091494285 1.033 1.424025e-38
0.10920285 0.091494285 1.033 1.4240247e-38
0.11117047 0.091494285 1.033 1.4240244e-38
0.11313809 0.091494285 1.033 1.4240243e-38
0.11510571 0.091494285 1.033 1.4148766e-38
0.11707333 0.091494285 1.033 1.4148772e-38
0.11904095 0.091494285 1.033 1.4056943e-38
0.12100857 0.091494285 1.033 1.3965462e-38
0.12297619 0.091494285 1.033 1.3965817e-38
0.1249438 0.091494285 1.033 1.4059086e-38
0.12728 0.091760002 1.036 1.3969403e-38
0.12962763 0.09202572 1.039 1.3877574e-38
0.13160668 0.09202572 1.039 1.3785746e-38
0.13397144 0.09229143 1.0420001 1.378647e-38
0.1359562 0.09229143 1.0420001 1.3787555e-38
0.13794096 0.09229143 1.0420001 1.3882245e-38
0.14032859 0.092557147 1.0450001 1.34209e-38
0.14231905 0.092557147 1.0450001 1.305938e-38
0.14430954 0.092557147 1.0450001 1.6575758e-38
0.1463 0.092557147 1.0450001 2.0088481e-38
0.14829049 0.092557147 1.0450001 2.073278e-38
0.073347628 0.095452383 1.0550001 1.4238449e-38
0.077366672 0.095452383 1.0550001 1.3146482e-38
0.080614291 0.094547629 1.0450001 1.3601343e-38
0.082604766 0.094547629 1.0450001 1.4149503e-38
0.084352389 0.094276197 1.0420001 1.4607621e-38
0.086337149 0.094276197 1.0420001 1.506607e-38
0.088067621 0.094004765 1.039 1.4699793e-38
0.090046667 0.094004765 1.039 1.4334241e-38
0.09202572 0.094004765 1.039 1.4057295e-38
0.094004765 0.094004765 1.039 1.3781431e-38
0.095429517 0.093461908 1.033 1.369175e-38
0.097397141 0.093461908 1.033 1.3692464e-38
0.099076197 0.093190484 1.0300001 1.387398e-38
0.10103811 0.093190484 1.0300001 1.4056932e-38
0.10300001 0.093190484 1.0300001 1.4332796e-38
0.10723524 0.093461908 1.033 1.4516111e-38
0.10920285 0.093461908 1.033 1.4331721e-38
0.11117047 0.093461908 1.033 1.433172e-38
0.11313809 0.093461908 1.033 1.4422479e-38
0.11510571 0.093461908 1.033 1.4240243e-38
0.11707333 0.093461908 1.033 1.414769e-38
0.11904095 0.093461908 1.033 1.4056931e-38
0.12100857 0.093461908 1.033 1.4056932e-38
0.12297619 0.093461908 1.033 1.4057651e-38
0.12530667 0.093733333 1.036 1.4149487e-38
0.12728 0.093733333 1.036 1.3967969e-38
0.12962763 0.094004765 1.039 1.3786103e-38
0.13160668 0.094004765 1.039 1.3601726e-38
0.13397144 0.094276197 1.0420001 1.351169e-38
0.1359562 0.094276197 1.0420001 1.369716e-38
0.13794096 0.094276197 1.0420001 1.3882606e-38
0.14032859 0.094547629 1.0450001 1.35113e-38
0.14231905 0.094547629 1.0450001 1.3248785e-38
0.14430954 0.094547629 1.0450001 1.6760852e-38
0.1463 0.094547629 1.0450001 2.0362547e-38
0.14829049 0.094547629 1.0450001 2.0824258e-38
0.075571433 0.097739056 1.0580001 1.3147192e-38
0.077366672 0.097461909 1.0550001 1.2871694e-38
0.079150476 0.09718477 1.052 1.2684429e-38
0.08284191 0.096815243 1.0480001 1.4149854e-38
0.084595241 0.096538097 1.0450001 1.4699083e-38
0.086337149 0.096260957 1.0420001 1.5249731e-38
0.088321909 0.096260957 1.0420001 1.4789832e-38
0.090306669 0.096260957 1.0420001 1.442428e-38
0.09202572 0.095983811 1.039 1.4149128e-38
0.094004765 0.095983811 1.039 1.3965816e-38
0.095983811 0.095983811 1.039 1.3967969e-38
0.097680002 0.095706671 1.036 1.3967613e-38
0.099653333 0.095706671 1.036 1.4058374e-38
0.10162666 0.095706671 1.036 1.4149847e-38
0.1036 0.095706671 1.036 1.4608663e-38
0.10557333 0.095706671 1.036 1.5068204e-38
0.10754667 0.095706671 1.036 1.4793062e-38
0.10952 0.095706671 1.036 1.4515038e-38
0.11149333 0.095706671 1.036 1.4515032e-38
0.11346667 0.095706671 1.036 1.4607226e-38
0.11544 0.095706671 1.036 1.4423914e-38
0.11707333 0.095429517 1.033 1.4240244e-38
0.11904095 0.095429517 1.033 1.4148769e-38
0.12136 0.095706671 1.036 1.4149128e-38
0.12333333 0.095706671 1.036 1.4241681e-38
0.12530667 0.095706671 1.036 1.4333518e-38
0.12728 0.095706671 1.036 1.3966537e-38
0.12962763 0.095983811 1.039 1.3692114e-38
0.13160668 0.095983811 1.039 1.3509885e-38
0.13397144 0.096260957 1.0420001 1.3329092e-38
0.1359562 0.096260957 1.0420001 1.3606761e-38
0.13794096 0.096260957 1.0420001 1.3880828e-38
0.14032859 0.096538097 1.0450001 1.360173e-38
0.14231905 0.096538097 1.0450001 1.3433552e-38
0.14430954 0.096538097 1.0450001 1.7038164e-38
0.1463 0.096538097 1.0450001 2.0641643e-38
0.14829049 0.096538097 1.0450001 2.1007922e-38
0.073764771 0.10003715 1.0610001 1.4514673e-38
0.075785719 0.10003715 1.0610001 1.2963164e-38
0.077366672 0.099471435 1.0550001 1.2963531e-38
0.079150476 0.099188574 1.052 1.2960294e-38
0.081154287 0.099188574 1.052 1.3510223e-38
0.08284191 0.098811433 1.0480001 1.4058368e-38
0.084595241 0.098528579 1.0450001 1.4516474e-38
0.086585723 0.098528579 1.0450001 1.4974217e-38
0.088321909 0.098245718 1.0420001 1.469907e-38
0.090306669 0.098245718 1.0420001 1.4423918e-38
0.09229143 0.098245718 1.0420001 1.4148408e-38
0.094004765 0.097962856 1.039 1.396653e-38
0.095983811 0.097962856 1.039 1.396689e-38
0.097962856 0.097962856 1.039 1.3875421e-38
0.099941909 0.097962856 1.039 1.3782516e-38
0.10162666 0.097680002 1.036 1.3690673e-38
0.1036 0.097680002 1.036 1.4148769e-38
0.10557333 0.097680002 1.036 1.4607239e-38
0.10754667 0.097680002 1.036 1.442322e-38
0.10952 0.097680002 1.036 1.4331372e-38
0.11149333 0.097680002 1.036 1.4239884e-38
0.11346667 0.097680002 1.036 1.4148766e-38
0.11544 0.097680002 1.036 1.4148766e-38
0.11741333 0.097680002 1.036 1.4148769e-38
0.11938667 0.097680002 1.036 1.4057295e-38
0.12136 0.097680002 1.036 1.3966176e-38
0.12333333 0.097680002 1.036 1.405801e-38
0.12566952 0.097962856 1.039 1.4150207e-38
0.12764858 0.097962856 1.039 1.396654e-38
0.12962763 0.097962856 1.039 1.3783231e-38
0.13198668 0.098245718 1.0420001 1.3692833e-38
0.13397144 0.098245718 1.0420001 1.3605673e-38
0.1359562 0.098245718 1.0420001 1.3512774e-38
0.1383381 0.098528579 1.0450001 1.3328396e-38
0.14032859 0.098528579 1.0450001 1.3598174e-38
0.14231905 0.098528579 1.0450001 1.3801991e-38
0.14430954 0.098528579 1.0450001 1.7317269e-38
0.1463 0.098528579 1.0450001 2.0737069e-38
0.14829049 0.098528579 1.0450001 2.1192663e-38
0.073764771 0.10205811 1.0610001 1.4514315e-38
0.075785719 0.10205811 1.0610001 1.2778418e-38
0.079376198 0.10148096 1.0550001 1.3235446e-38
0.081154287 0.10119238 1.052 1.3602422e-38
0.08284191 0.10080762 1.0480001 1.405873e-38
0.084595241 0.10051905 1.0450001 1.4334238e-38
0.086585723 0.10051905 1.0450001 1.4700512e-38
0.088576198 0.10051905 1.0450001 1.4516133e-38
0.090306669 0.10023048 1.0420001 1.4423574e-38
0.09229143 0.10023048 1.0420001 1.4239896e-38
0.094004765 0.099941909 1.039 1.4057298e-38
0.095983811 0.099941909 1.039 1.3966536e-38
0.097962856 0.099941909 1.039 1.3874343e-38
0.099941909 0.099941909 1.039 1.3598478e-38
0.10192095 0.099941909 1.039 1.332297e-38
0.1036 0.099653333 1.036 1.3781071e-38
0.10557333 0.099653333 1.036 1.4239894e-38
0.10754667 0.099653333 1.036 1.4148064e-38
0.10952 0.099653333 1.036 1.4148775e-38
0.11149333 0.099653333 1.036 1.3965814e-38
0.11346667 0.099653333 1.036 1.3782145e-38
0.11544 0.099653333 1.036 1.3873983e-38
0.11741333 0.099653333 1.036 1.4058013e-38
0.11938667 0.099653333 1.036 1.3966896e-38
0.12171143 0.099941909 1.039 1.3875419e-38
0.12369048 0.099941909 1.039 1.3967972e-38
0.12566952 0.099941909 1.039 1.4059809e-38
0.12764858 0.099941909 1.039 1.3967975e-38
0.13000192 0.10023048 1.0420001 1.3876148e-38
0.13198668 0.10023048 1.0420001 1.3876155e-38
0.13435715 0.10051905 1.0450001 1.3969064e-38
0.13634762 0.10051905 1.0450001 1.3419124e-38
0.1383381 0.10051905 1.0450001 1.286705e-38
0.14073145 0.10080762 1.0480001 1.35031e-38
0.14272763 0.10080762 1.0480001 1.427301e-38
0.14430954 0.10051905 1.0450001 1.7596377e-38
0.1463 0.10051905 1.0450001 2.0918958e-38
0.073973328 0.10437334 1.064 1.4698344e-38
0.076000005 0.10437334 1.064 1.2685868e-38
0.079376198 0.10349049 1.0550001 1.3143616e-38
0.081154287 0.10319619 1.052 1.3601711e-38
0.08284191 0.10280382 1.0480001 1.4059093e-38
0.0848381 0.10280382 1.0480001 1.4334239e-38
0.086585723 0.10250953 1.0450001 1.4609763e-38
0.088576198 0.10250953 1.0450001 1.451615e-38
0.090306669 0.10221524 1.0420001 1.4331393e-38
0.09229143 0.10221524 1.0420001 1.39644e-38
0.094276197 0.10221524 1.0420001 1.3597411e-38
0.096260957 0.10221524 1.0420001 1.3688883e-38
0.098245718 0.10221524 1.0420001 1.3872189e-38
0.099941909 0.10192095 1.039 1.3781783e-38
0.10192095 0.10192095 1.039 1.3598116e-38
0.1039 0.10192095 1.039 1.3964745e-38
0.10587905 0.10192095 1.039 1.4331369e-38
0.1078581 0.10192095 1.039 1.4239893e-38
0.10983714 0.10192095 1.039 1.4149489e-38
0.1118162 0.10192095 1.039 1.4149487e-38
0.11379524 0.10192095 1.039 1.4149491e-38
0.11577429 0.10192095 1.039 1.4149854e-38
0.11775334 0.10192095 1.039 1.415057e-38
0.11973238 0.10192095 1.039 1.3966897e-38
0.12171143 0.10192095 1.039 1.3875781e-38
0.12369048 0.10192095 1.039 1.3967976e-38
0.12566952 0.10192095 1.039 1.4151647e-38
0.12801716 0.10221524 1.0420001 1.3783588e-38
0.13000192 0.10221524 1.0420001 1.3506659e-38
0.13198668 0.10221524 1.0420001 1.3321566e-38
0.13435715 0.10250953 1.0450001 1.3228636e-38
0.13673906 0.10280382 1.0480001 1.3781424e-38
0.13873525 0.10280382 1.0480001 1.4334611e-38
0.14126857 0.10319619 1.052 1.5916642e-38
0.14272763 0.10280382 1.0480001 1.7499092e-38
0.14472382 0.10280382 1.0480001 1.9346646e-38
0.1463 0.10250953 1.0450001 2.1100848e-38
0.073973328 0.1064 1.064 1.4790539e-38
0.076000005 0.1064 1.064 1.2593667e-38
0.079376198 0.10550001 1.0550001 1.3050696e-38
0.081154287 0.10520001 1.052 1.3601348e-38
0.083158098 0.10520001 1.052 1.4150567e-38
0.0848381 0.10480001 1.0480001 1.4333519e-38
0.086585723 0.1045 1.0450001 1.4609394e-38
0.088576198 0.1045 1.0450001 1.4424299e-38
0.090566672 0.1045 1.0450001 1.4331383e-38
0.09229143 0.10420001 1.0420001 1.3687096e-38
0.094276197 0.10420001 1.0420001 1.3137872e-38
0.096260957 0.10420001 1.0420001 1.3504851e-38
0.098245718 0.10420001 1.0420001 1.3964741e-38
0.099941909 0.1039 1.039 1.3965454e-38
0.10192095 0.1039 1.039 1.3965098e-38
0.1039 0.1039 1.039 1.4148772e-38
0.10587905 0.1039 1.039 1.4423918e-38
0.1078581 0.1039 1.039 1.4240247e-38
0.10983714 0.1039 1.039 1.4149487e-38
0.1118162 0.1039 1.039 1.4332797e-38
0.11379524 0.1039 1.039 1.4516837e-38
0.11577429 0.1039 1.039 1.4333895e-38
0.11775334 0.1039 1.039 1.4242051e-38
0.11973238 0.1039 1.039 1.4058729e-38
0.12171143 0.1039 1.039 1.3875418e-38
0.12369048 0.1039 1.039 1.4059809e-38
0.12603238 0.10420001 1.0420001 1.4242761e-38
0.12801716 0.10420001 1.0420001 1.3691029e-38
0.13000192 0.10420001 1.0420001 1.3228988e-38
0.13198668 0.10420001 1.0420001 1.2857348e-38
0.13435715 0.1045 1.0450001 1.2491103e-38
0.13673906 0.10480001 1.0480001 1.4145598e-38
0.13926478 0.10520001 1.052 1.5820899e-38
0.14126857 0.10520001 1.052 1.832272e-38
0.14327239 0.10520001 1.052 2.0812012e-38
0.1452762 0.10520001 1.052 2.1096892e-38
0.14728001 0.10520001 1.052 2.1373116e-38
0.076000005 0.10842667 1.064 1.2501826e-38
0.077806674 0.10812096 1.0610001 1.2867733e-38
0.079376198 0.10750953 1.0550001 1.3234e-38
0.081385717 0.10750953 1.0550001 1.3692822e-38
0.083158098 0.10720381 1.052 1.4150205e-38
0.0848381 0.1067962 1.0480001 1.4425353e-38
0.086585723 0.10649049 1.0450001 1.4701221e-38
0.088576198 0.10649049 1.0450001 1.4607955e-38
0.090566672 0.10649049 1.0450001 1.4515403e-38
0.09229143 0.10618477 1.0420001 1.4055151e-38
0.094276197 0.10618477 1.0420001 1.3598841e-38
0.096260957 0.10618477 1.0420001 1.3783585e-38
0.098245718 0.10618477 1.0420001 1.3968328e-38
0.099941909 0.10587905 1.039 1.3782143e-38
0.10192095 0.10587905 1.039 1.368959e-38
0.1039 0.10587905 1.039 1.3872904e-38
0.10587905 0.10587905 1.039 1.4148409e-38
0.1078581 0.10587905 1.039 1.3780707e-38
0.10983714 0.10587905 1.039 1.3415158e-38
0.1118162 0.10587905 1.039 1.37825e-38
0.11379524 0.10587905 1.039 1.4241695e-38
0.11577429 0.10587905 1.039 1.4149877e-38
0.11775334 0.10587905 1.039 1.4149861e-38
0.11973238 0.10587905 1.039 1.4056932e-38
0.12206285 0.10618477 1.0420001 1.4055857e-38
0.12404761 0.10618477 1.0420001 1.4240607e-38
0.12603238 0.10618477 1.0420001 1.4517546e-38
0.12801716 0.10618477 1.0420001 1.3964019e-38
0.13037619 0.10649049 1.0450001 1.3502689e-38
0.13236669 0.10649049 1.0450001 1.4701573e-38
0.13726096 0.10720381 1.052 1.665571e-38
0.13926478 0.10720381 1.052 1.7503057e-38
0.14126857 0.10720381 1.052 1.8969218e-38
0.14327239 0.10720381 1.052 2.0451511e-38
0.14569049 0.10750953 1.0550001 2.0821018e-38
0.14770001 0.10750953 1.0550001 2.1188359e-38
0.077806674 0.11014191 1.0610001 1.2963165e-38
0.081385717 0.10951906 1.0550001 1.3784303e-38
0.083158098 0.10920762 1.052 1.4242768e-38
0.085161909 0.10920762 1.052 1.4517205e-38
0.086834297 0.10879239 1.0480001 1.4884182e-38
0.088576198 0.10848096 1.0450001 1.479198e-38
0.090566672 0.10848096 1.0450001 1.4698351e-38
0.092557147 0.10848096 1.0450001 1.4423205e-38
0.094276197 0.10816953 1.0420001 1.4149489e-38
0.096260957 0.10816953 1.0420001 1.4059805e-38
0.098245718 0.10816953 1.0420001 1.3967608e-38
0.10023048 0.10816953 1.0420001 1.3690665e-38
0.10221524 0.10816953 1.0420001 1.341588e-38
0.1039 0.1078581 1.039 1.3692108e-38
0.10587905 0.1078581 1.039 1.3965817e-38
0.1078581 0.1078581 1.039 1.3321172e-38
0.10983714 0.1078581 1.039 1.277016e-38
0.1118162 0.1078581 1.039 1.3321175e-38
0.11379524 0.1078581 1.039 1.3963674e-38
0.11577429 0.1078581 1.039 1.3963683e-38
0.11809334 0.10816953 1.0420001 1.4057661e-38
0.1200781 0.10816953 1.0420001 1.4146615e-38
0.12206285 0.10816953 1.0420001 1.4238811e-38
0.12404761 0.10816953 1.0420001 1.4515038e-38
0.12639524 0.10848096 1.0450001 1.4788748e-38
0.12838572 0.10848096 1.0450001 1.4236297e-38
0.13037619 0.10848096 1.0450001 1.3780019e-38
0.13236669 0.10848096 1.0450001 1.6561661e-38
0.13726096 0.10920762 1.052 1.9242183e-38
0.13926478 0.10920762 1.052 1.9153591e-38
0.14126857 0.10920762 1.052 1.9616011e-38
0.14327239 0.10920762 1.052 2.0082727e-38
0.14569049 0.10951906 1.0550001 2.0545499e-38
0.14770001 0.10951906 1.0550001 2.1095799e-38
0.079827629 0.11216287 1.0610001 1.3054289e-38
0.081385717 0.11152858 1.0550001 1.3601353e-38
0.083395243 0.11152858 1.0550001 1.415202e-38
0.085161909 0.11121143 1.052 1.442718e-38
0.088830486 0.11078858 1.0480001 1.497493e-38
0.090566672 0.11047143 1.0450001 1.5157166e-38
0.092557147 0.11047143 1.0450001 1.4790183e-38
0.094547629 0.11047143 1.0450001 1.4424992e-38
0.096260957 0.11015429 1.0420001 1.4242037e-38
0.098245718 0.11015429 1.0420001 1.4059083e-38
0.10023048 0.11015429 1.0420001 1.3875771e-38
0.10221524 0.11015429 1.0420001 1.378466e-38
0.10420001 0.11015429 1.0420001 1.4059457e-38
0.10587905 0.10983714 1.039 1.4334239e-38
0.1078581 0.10983714 1.039 1.3874698e-38
0.11015429 0.11015429 1.0420001 1.3507358e-38
0.1118162 0.10983714 1.039 1.3873987e-38
0.11412381 0.11015429 1.0420001 1.4240612e-38
0.11610858 0.11015429 1.0420001 1.4332807e-38
0.11809334 0.11015429 1.0420001 1.4333162e-38
0.1200781 0.11015429 1.0420001 1.4333158e-38
0.12206285 0.11015429 1.0420001 1.4241323e-38
0.12440477 0.11047143 1.0450001 1.4329214e-38
0.12639524 0.11047143 1.0450001 1.4419612e-38
0.12838572 0.11047143 1.0450001 1.4786592e-38
0.13075048 0.11078858 1.0480001 1.506754e-38
0.13274668 0.11078858 1.0480001 1.7860691e-38
0.13525714 0.11121143 1.052 2.073164e-38
0.13726096 0.11121143 1.052 1.9325423e-38
0.13966191 0.11152858 1.0550001 1.795256e-38
0.14167143 0.11152858 1.0550001 1.9435208e-38
0.14368096 0.11152858 1.0550001 2.0908163e-38
0.14569049 0.11152858 1.0550001 2.0912111e-38
0.14770001 0.11152858 1.0550001 2.1003239e-38
0.074460007 0.11526 1.0710001 1.5988346e-38
0.07628572 0.11493715 1.0680001 1.2594033e-38
0.078320004 0.11493715 1.0680001 1.2689468e-38
0.083395243 0.1135381 1.0550001 1.4059459e-38
0.085161909 0.11321525 1.052 1.4335335e-38
0.087165713 0.11321525 1.052 1.4701228e-38
0.089169532 0.11321525 1.052 1.5158241e-38
0.090826675 0.11278477 1.0480001 1.5616701e-38
0.092822865 0.11278477 1.0480001 1.5157523e-38
0.094547629 0.11246191 1.0450001 1.4700138e-38
0.096538097 0.11246191 1.0450001 1.4424273e-38
0.098245718 0.11213905 1.0420001 1.4149842e-38
0.10023048 0.11213905 1.0420001 1.4151638e-38
0.10221524 0.11213905 1.0420001 1.415164e-38
0.10420001 0.11213905 1.0420001 1.442715e-38
0.10618477 0.11213905 1.0420001 1.479413e-38
0.10816953 0.11213905 1.0420001 1.4518622e-38
0.11015429 0.11213905 1.0420001 1.424276e-38
0.1118162 0.1118162 1.039 1.4426434e-38
0.11412381 0.11213905 1.0420001 1.4610105e-38
0.11610858 0.11213905 1.0420001 1.4610106e-38
0.11809334 0.11213905 1.0420001 1.4700144e-38
0.1200781 0.11213905 1.0420001 1.4515751e-38
0.12206285 0.11213905 1.0420001 1.432957e-38
0.12440477 0.11246191 1.0450001 1.4235585e-38
0.12639524 0.11246191 1.0450001 1.4143402e-38
0.1287543 0.11278477 1.0480001 1.5245081e-38
0.13075048 0.11278477 1.0480001 1.6463013e-38
0.13325334 0.11321525 1.052 1.9251836e-38
0.13525714 0.11321525 1.052 2.2012628e-38
0.13765238 0.1135381 1.0550001 1.9408937e-38
0.13966191 0.1135381 1.0550001 1.685158e-38
0.14167143 0.1135381 1.0550001 1.9254417e-38
0.14368096 0.1135381 1.0550001 2.1735405e-38
0.14569049 0.1135381 1.0550001 2.1370568e-38
0.14770001 0.1135381 1.0550001 2.1003233e-38
0.072420008 0.1173 1.0710001 1.9330726e-38
0.074460007 0.1173 1.0710001 1.5993368e-38
0.076500006 0.1173 1.0710001 1.2684436e-38
0.078320004 0.11697143 1.0680001 1.2964623e-38
0.085404761 0.11554762 1.0550001 1.4426085e-38
0.087165713 0.11521905 1.052 1.4791623e-38
0.089169532 0.11521905 1.052 1.4974568e-38
0.091173336 0.11521905 1.052 1.5249716e-38
0.092822865 0.11478096 1.0480001 1.4790897e-38
0.094819061 0.11478096 1.0480001 1.4424273e-38
0.096538097 0.11445239 1.0450001 1.3965095e-38
0.098528579 0.11445239 1.0450001 1.3506278e-38
0.10023048 0.11412381 1.0420001 1.3691744e-38
0.10221524 0.11412381 1.0420001 1.3875055e-38
0.10420001 0.11412381 1.0420001 1.3874336e-38
0.10618477 0.11412381 1.0420001 1.3873979e-38
0.10816953 0.11412381 1.0420001 1.4058368e-38
0.11015429 0.11412381 1.0420001 1.4150923e-38
0.11213905 0.11412381 1.0420001 1.4425356e-38
0.11412381 0.11412381 1.0420001 1.4608309e-38
0.11610858 0.11412381 1.0420001 1.4700146e-38
0.11809334 0.11412381 1.0420001 1.4700142e-38
0.1200781 0.11412381 1.0420001 1.4790539e-38
0.12241429 0.11445239 1.0450001 1.4786237e-38
0.12440477 0.11445239 1.0450001 1.5433393e-38
0.1267581 0.11478096 1.0480001 1.6080571e-38
0.1287543 0.11478096 1.0480001 1.747463e-38
0.13124953 0.11521905 1.052 1.8868677e-38
0.13325334 0.11521905 1.052 2.0263083e-38
0.13525714 0.11521905 1.052 2.1549101e-38
0.13765238 0.11554762 1.0550001 1.9705896e-38
0.13966191 0.11554762 1.0550001 1.7771339e-38
0.14167143 0.11554762 1.0550001 1.9251557e-38
0.14408953 0.11587621 1.0580001 2.0726293e-38
0.14610478 0.11587621 1.0580001 2.0911388e-38
0.072420008 0.11934001 1.0710001 1.924428e-38
0.074460007 0.11934001 1.0710001 1.5998749e-38
0.076500006 0.11934001 1.0710001 1.287457e-38
0.078540012 0.11934001 1.0710001 1.3331975e-38
0.080580011 0.11934001 1.0710001 1.3787909e-38
0.085404761 0.11755715 1.0550001 1.4609033e-38
0.087165713 0.11722286 1.052 1.4882738e-38
0.089169532 0.11722286 1.052 1.4882733e-38
0.091173336 0.11722286 1.052 1.4882733e-38
0.093177147 0.11722286 1.052 1.4517184e-38
0.094819061 0.11677715 1.0480001 1.4240602e-38
0.096815243 0.11677715 1.0480001 1.3505559e-38
0.098528579 0.11644286 1.0450001 1.2863429e-38
0.10051905 0.11644286 1.0450001 1.3232209e-38
0.10250953 0.11644286 1.0450001 1.3597755e-38
0.10420001 0.11610858 1.0420001 1.3320812e-38
0.10618477 0.11610858 1.0420001 1.3047818e-38
0.10816953 0.11610858 1.0420001 1.3597397e-38
0.11015429 0.11610858 1.0420001 1.4146621e-38
0.11213905 0.11610858 1.0420001 1.4420697e-38
0.11412381 0.11610858 1.0420001 1.4697275e-38
0.11610858 0.11610858 1.0420001 1.4698349e-38
0.11809334 0.11610858 1.0420001 1.4789822e-38
0.1200781 0.11610858 1.0420001 1.5065328e-38
0.12241429 0.11644286 1.0450001 1.5345893e-38
0.12476192 0.11677715 1.0480001 1.6728844e-38
0.1267581 0.11677715 1.0480001 1.8123258e-38
0.12924571 0.11722286 1.052 1.9701343e-38
0.13124953 0.11722286 1.052 2.1360498e-38
0.13325334 0.11722286 1.052 2.127478e-38
0.13564286 0.11755715 1.0550001 2.118111e-38
0.13765238 0.11755715 1.0550001 1.9976446e-38
0.13966191 0.11755715 1.0550001 1.8782266e-38
0.14207429 0.11789144 1.0580001 1.924866e-38
0.14408953 0.11789144 1.0580001 1.9711429e-38
0.14610478 0.11789144 1.0580001 2.0544051e-38
0.076714285 0.12172 1.074 1.2494319e-38
0.078540012 0.12138001 1.0710001 1.3054686e-38
0.080580011 0.12138001 1.0710001 1.3695366e-38
0.085404761 0.11956667 1.0550001 1.4700145e-38
