# .PCD v0.7 - Point Cloud Data file format
VERSION 0.7
FIELDS x y z rgb
SIZE 4 4 4 4
TYPE F F F F
COUNT 1 1 1 1
WIDTH 93
HEIGHT 1
VIEWPOINT 0 0 0 1 0 0 0
POINTS 93
DATA ascii
0.54909337 0.038556192 1.396 2.0257022e-38
0.54909337 0.041215237 1.396 2.0909272e-38
0.54878289 0.04406286 1.4020001 2.1006113e-38
0.54909337 0.043874286 1.396 2.1647905e-38
0.55291337 0.05122 1.3790001 2.1002879e-38
0.55352575 0.051034287 1.3740001 2.1002909e-38
0.55428672 0.050625715 1.363 2.3401076e-38
0.55484003 0.050440002 1.358 2.3400727e-38
0.55496383 0.050217148 1.3520001 2.3400709e-38
0.5554772 0.050031431 1.3470001 2.3399256e-38
0.55291337 0.053846668 1.3790001 2.0633736e-38
0.55352575 0.05365143 1.3740001 2.0451171e-38
0.55225337 0.053026669 1.358 2.339963e-38
0.55238861 0.052792381 1.3520001 2.3401071e-38
0.55496383 0.052792381 1.3520001 2.3400343e-38
0.55804294 0.052597146 1.3470001 2.3399256e-38
0.55028671 0.056473337 1.3790001 2.0725566e-38
0.55090863 0.056268577 1.3740001 2.0633729e-38
0.55110854 0.056022856 1.368 2.0450446e-38
0.55371428 0.056022856 1.368 2.1464613e-38
0.55225337 0.055613335 1.358 2.2388352e-38
0.55238861 0.055367623 1.3520001 2.2850044e-38
0.55496383 0.055367623 1.3520001 2.3399979e-38
0.55753911 0.055367623 1.3520001 2.3399619e-38
0.55004287 0.059357148 1.3850001 2.0449696e-38
0.55268103 0.059357148 1.3850001 2.063337e-38
0.54850286 0.05862857 1.368 2.0540461e-38
0.54909432 0.058414288 1.363 2.0541193e-38
0.5496667 0.058200002 1.358 2.1004689e-38
0.54981339 0.05794286 1.3520001 2.1467831e-38
0.55034572 0.057728577 1.3470001 2.2390869e-38
0.55291146 0.057728577 1.3470001 2.3401065e-38
0.55004287 0.061995246 1.3850001 2.0358213e-38
0.5482915 0.061502859 1.3740001 2.081704e-38
0.54850286 0.061234292 1.368 2.063266e-38
0.54909432 0.06101048 1.363 2.0448268e-38
0.5496667 0.060786664 1.358 2.0635524e-38
0.54981339 0.060518101 1.3520001 2.0915012e-38
0.55238861 0.060518101 1.3520001 2.2114289e-38
0.55291146 0.060294289 1.3470001 2.3401792e-38
0.5482915 0.064120002 1.3740001 2.1001783e-38
0.54850286 0.063839994 1.368 2.0634446e-38
0.55110854 0.063839994 1.368 2.0357148e-38
0.5496667 0.063373335 1.358 2.0352486e-38
0.55225337 0.063373335 1.358 2.0456201e-38
0.55238861 0.063093342 1.3520001 2.1929559e-38
0.54567426 0.066737145 1.3740001 2.0081629e-38
0.54589713 0.066445716 1.368 2.0634437e-38
0.54850286 0.066445716 1.368 2.045041e-38
0.55110854 0.066445716 1.368 2.0266386e-38
0.5496667 0.065960005 1.358 2.0171327e-38
0.55225337 0.065960005 1.358 2.0181422e-38
0.54503334 0.069606669 1.3790001 1.9348031e-38
0.54567426 0.069354288 1.3740001 1.9804319e-38
0.54589713 0.069051422 1.368 2.026673e-38
0.54850286 0.069051422 1.368 2.017454e-38
0.55110854 0.069051422 1.368 2.0174186e-38
0.55371428 0.069051422 1.368 2.0082356e-38
0.55631995 0.069051422 1.368 1.999379e-38
0.54503334 0.072233334 1.3790001 1.8524382e-38
0.54567426 0.071971431 1.3740001 1.934585e-38
0.54589713 0.071657151 1.368 2.0174888e-38
0.54850286 0.071657151 1.368 2.0174179e-38
0.55110854 0.071657151 1.368 2.0173464e-38
0.55371428 0.071657151 1.368 2.0081991e-38
0.55631995 0.071657151 1.368 1.9988395e-38
0.54503334 0.074860007 1.3790001 1.769463e-38
0.54567426 0.074588574 1.3740001 1.8887417e-38
0.54589713 0.074262857 1.368 2.0173468e-38
0.54850286 0.074262857 1.368 2.0174182e-38
0.55110854 0.074262857 1.368 2.0265664e-38
0.55371428 0.074262857 1.368 2.0082e-38
0.55631995 0.074262857 1.368 1.9988033e-38
0.54567426 0.077205718 1.3740001 1.8519743e-38
0.54589713 0.076868579 1.368 2.0080929e-38
0.54850286 0.076868579 1.368 2.0081273e-38
0.55110854 0.076868579 1.368 2.0173835e-38
0.55371428 0.076868579 1.368 2.0173486e-38
0.54567426 0.079822861 1.3740001 1.8152035e-38
0.54589713 0.079474285 1.368 2.0080928e-38
0.54850286 0.079474285 1.368 2.0079482e-38
0.55110854 0.079474285 1.368 2.0080564e-38
0.55371428 0.079474285 1.368 2.0356792e-38
0.54329139 0.082080007 1.368 1.732264e-38
0.54190665 0.081479996 1.358 1.980542e-38
0.54649806 0.081780002 1.363 1.9896891e-38
0.54909432 0.081780002 1.363 1.9896532e-38
0.54130572 0.084376194 1.363 1.6493609e-38
0.54190665 0.084066667 1.358 1.9624271e-38
0.54449332 0.084066667 1.358 1.97136e-38
0.54909432 0.084376194 1.363 1.9804712e-38
0.54390186 0.086972378 1.363 1.925945e-38
0.54649806 0.086972378 1.363 1.9623579e-38
