# .PCD v0.7 - Point Cloud Data file format
VERSION 0.7
FIELDS x y z rgb
SIZE 4 4 4 4
TYPE F F F F
COUNT 1 1 1 1
WIDTH 1044
HEIGHT 1
VIEWPOINT 0 0 0 1 0 0 0
POINTS 1044
DATA ascii
0.58462292 -0.23086287 1.2060001 5.2421987e-39
0.58692002 -0.23086287 1.2060001 7.0075951e-39
0.58921719 -0.23086287 1.2060001 9.8570823e-39
0.56120956 -0.22932382 1.21 5.7074508e-39
0.56537718 -0.23008192 1.2140001 5.522705e-39
0.56768954 -0.23008192 1.2140001 5.3386683e-39
0.56812382 -0.22932382 1.21 4.7876483e-39
0.57042855 -0.22932382 1.21 4.3263212e-39
0.57273334 -0.22932382 1.21 3.9571898e-39
0.57503814 -0.22932382 1.21 3.6816777e-39
0.57734287 -0.22932382 1.21 3.5901967e-39
0.57773149 -0.22856572 1.2060001 3.4987312e-39
0.58002859 -0.22856572 1.2060001 3.1296053e-39
0.5823257 -0.22856572 1.2060001 2.8526737e-39
0.58462292 -0.22856572 1.2060001 5.5252386e-39
0.58497334 -0.22780761 1.202 8.2907684e-39
0.58726287 -0.22780761 1.202 1.0881956e-38
0.5895524 -0.22780761 1.202 1.3528668e-38
0.56120956 -0.22701906 1.21 5.5234323e-39
0.56537718 -0.22776954 1.2140001 5.521633e-39
0.56768954 -0.22776954 1.2140001 5.6131028e-39
0.56812382 -0.22701906 1.21 4.8773356e-39
0.57042855 -0.22701906 1.21 4.2337711e-39
0.57273334 -0.22701906 1.21 3.8646382e-39
0.57503814 -0.22701906 1.21 3.4958543e-39
0.57543433 -0.22626859 1.2060001 3.5894779e-39
0.57773149 -0.22626859 1.2060001 3.6824022e-39
0.58002859 -0.22626859 1.2060001 3.590222e-39
0.5823257 -0.22626859 1.2060001 3.4980347e-39
0.5826838 -0.22551809 1.202 5.5202177e-39
0.58497334 -0.22551809 1.202 7.5539208e-39
0.58726287 -0.22551809 1.202 9.3913972e-39
0.5895524 -0.22551809 1.202 1.1320649e-38
0.55844003 -0.22545716 1.2140001 2.2991286e-39
0.56075239 -0.22545716 1.2140001 3.7771131e-39
0.56120956 -0.22471429 1.21 5.3376005e-39
0.56537718 -0.22545716 1.2140001 5.6127497e-39
0.56768954 -0.22545716 1.2140001 5.8882547e-39
0.57000196 -0.22545716 1.2140001 4.9684621e-39
0.57231432 -0.22545716 1.2140001 4.1408636e-39
0.57273334 -0.22471429 1.21 3.772444e-39
0.57503814 -0.22471429 1.21 3.4050992e-39
0.57734287 -0.22471429 1.21 3.5891275e-39
0.57773149 -0.22397144 1.2060001 3.866083e-39
0.58002859 -0.22397144 1.2060001 3.9582912e-39
0.5823257 -0.22397144 1.2060001 4.1398196e-39
0.58462292 -0.22397144 1.2060001 5.4233754e-39
0.58497334 -0.22322857 1.202 6.821385e-39
0.58726287 -0.22322857 1.202 7.921288e-39
0.5895524 -0.22322857 1.202 9.1144306e-39
0.55844003 -0.22314477 1.2140001 2.8530016e-39
0.56075239 -0.22314477 1.2140001 3.9607701e-39
0.56306481 -0.22314477 1.2140001 5.1539225e-39
0.56537718 -0.22314477 1.2140001 5.2454077e-39
0.56768954 -0.22314477 1.2140001 5.4290815e-39
0.57000196 -0.22314477 1.2140001 4.6000537e-39
0.57231432 -0.22314477 1.2140001 3.7717335e-39
0.57273334 -0.22240953 1.21 3.3125491e-39
0.57503814 -0.22240953 1.21 2.9437735e-39
0.57734287 -0.22240953 1.21 3.4058237e-39
0.57773149 -0.22167429 1.2060001 3.9579269e-39
0.58195239 -0.22240953 1.21 4.0479841e-39
0.58425719 -0.22240953 1.21 4.1340939e-39
0.58656192 -0.22240953 1.21 6.1688381e-39
0.58497334 -0.22093906 1.202 8.201067e-39
0.58726287 -0.22093906 1.202 8.9357608e-39
0.55844003 -0.22083241 1.2140001 3.4058153e-39
0.56075239 -0.22083241 1.2140001 4.1448124e-39
0.56306481 -0.22083241 1.2140001 4.972062e-39
0.56770575 -0.22174193 1.2190001 4.9731508e-39
0.56768954 -0.22083241 1.2140001 4.9691949e-39
0.57000196 -0.22083241 1.2140001 4.2319886e-39
0.57231432 -0.22083241 1.2140001 3.4958655e-39
0.57273334 -0.22010475 1.21 2.9448483e-39
0.57503814 -0.22010475 1.21 2.4867513e-39
0.57734287 -0.22010475 1.21 3.3143525e-39
0.57773149 -0.21937716 1.2060001 4.1415965e-39
0.58002859 -0.21937716 1.2060001 4.1376588e-39
0.58425719 -0.22010475 1.21 4.2277189e-39
0.58656192 -0.22010475 1.21 6.9142841e-39
0.55844003 -0.21852002 1.2140001 4.1426572e-39
0.56075239 -0.21852002 1.2140001 4.695838e-39
0.56768954 -0.21852002 1.2140001 4.7848149e-39
0.57000196 -0.21852002 1.2140001 4.231267e-39
0.57503814 -0.21780001 1.21 3.1310375e-39
0.57925147 -0.21852002 1.2140001 3.6817001e-39
0.5796476 -0.21780001 1.21 4.2337893e-39
0.57693911 -0.21620764 1.2140001 3.8653641e-39
0.57925147 -0.21620764 1.2140001 4.0494078e-39
0.5796476 -0.21549524 1.21 4.3220487e-39
0.58195239 -0.21549524 1.21 5.0542243e-39
0.57693911 -0.21389526 1.2140001 3.8671592e-39
0.58156383 -0.21389526 1.2140001 3.4923104e-39
0.58387625 -0.21389526 1.2140001 5.3344083e-39
0.58618861 -0.21389526 1.2140001 7.2030861e-39
0.57693911 -0.21158287 1.2140001 3.8671564e-39
0.57925147 -0.21158287 1.2140001 3.3150826e-39
0.58156383 -0.21158287 1.2140001 2.7576195e-39
0.58387625 -0.21158287 1.2140001 5.6145713e-39
0.58618861 -0.21158287 1.2140001 8.5773787e-39
0.57462668 -0.20927049 1.2140001 3.3157706e-39
0.57693911 -0.20927049 1.2140001 3.6834826e-39
0.57925147 -0.20927049 1.2140001 2.9466574e-39
0.58156383 -0.20927049 1.2140001 2.2069582e-39
0.58387625 -0.20927049 1.2140001 6.0758956e-39
0.58618861 -0.20927049 1.2140001 9.9520315e-39
0.57002765 -0.20781049 1.2190001 4.141574e-39
0.57234955 -0.20781049 1.2190001 3.7742265e-39
0.57231432 -0.2069581 1.2140001 3.4068873e-39
0.57462668 -0.2069581 1.2140001 3.4990857e-39
0.57693911 -0.2069581 1.2140001 3.5909352e-39
0.57925147 -0.2069581 1.2140001 2.6700845e-39
0.58156383 -0.2069581 1.2140001 1.7467157e-39
0.58387625 -0.2069581 1.2140001 6.5375968e-39
0.57002765 -0.20548858 1.2190001 3.9575443e-39
0.57234955 -0.20548858 1.2190001 3.6816749e-39
0.57231432 -0.20464574 1.2140001 3.4061726e-39
0.57699341 -0.20548858 1.2190001 3.5898478e-39
0.57693911 -0.20464574 1.2140001 3.8657312e-39
0.57925147 -0.20464574 1.2140001 3.3115079e-39
0.58156383 -0.20464574 1.2140001 2.7562013e-39
0.58387625 -0.20464574 1.2140001 7.0043217e-39
0.58618861 -0.20464574 1.2140001 1.1234514e-38
0.57002765 -0.20316668 1.2190001 3.8649886e-39
0.57234955 -0.20316668 1.2190001 3.6813148e-39
0.57467145 -0.20316668 1.2190001 3.497648e-39
0.57699341 -0.20316668 1.2190001 3.7735174e-39
0.57693911 -0.20233335 1.2140001 4.1412279e-39
0.57925147 -0.20233335 1.2140001 3.9529046e-39
0.58156383 -0.20233335 1.2140001 3.860744e-39
0.58387625 -0.20233335 1.2140001 7.5628947e-39
0.58425719 -0.20166667 1.21 1.1234884e-38
0.58656192 -0.20166667 1.21 1.0126403e-38
0.56770575 -0.20084478 1.2190001 4.2337655e-39
0.57002765 -0.20084478 1.2190001 4.048298e-39
0.57234955 -0.20084478 1.2190001 3.8646256e-39
0.57467145 -0.20084478 1.2190001 3.7724356e-39
0.57699341 -0.20084478 1.2190001 3.957187e-39
0.57693911 -0.20002097 1.2140001 4.2334137e-39
0.57925147 -0.20002097 1.2140001 4.231983e-39
0.58425719 -0.19936191 1.21 1.105194e-38
0.58656192 -0.19936191 1.21 9.4817557e-39
0.56538385 -0.19852288 1.2190001 4.5099908e-39
0.57002765 -0.19852288 1.2190001 4.2312515e-39
0.57234955 -0.19852288 1.2190001 4.1401321e-39
0.57467145 -0.19852288 1.2190001 4.139779e-39
0.57462668 -0.19770859 1.2140001 4.2326977e-39
0.57693911 -0.19770859 1.2140001 4.3223794e-39
0.57925147 -0.19770859 1.2140001 4.4091898e-39
0.58156383 -0.19770859 1.2140001 4.6094256e-39
0.56770575 -0.19620097 1.2190001 4.049377e-39
0.57002765 -0.19620097 1.2190001 4.1386986e-39
0.57234955 -0.19620097 1.2190001 4.1390559e-39
0.57467145 -0.19620097 1.2190001 4.2316173e-39
0.57699341 -0.19620097 1.2190001 4.0465212e-39
0.57693911 -0.1953962 1.2140001 3.9525249e-39
0.57925147 -0.1953962 1.2140001 5.6181124e-39
0.58156383 -0.1953962 1.2140001 7.2837771e-39
0.56906676 -0.19594668 1.2320001 4.0511749e-39
0.5714134 -0.19594668 1.2320001 3.4068901e-39
0.57143146 -0.19515145 1.2270001 3.6816777e-39
0.57376862 -0.19515145 1.2270001 4.0468645e-39
0.57422763 -0.19451524 1.223 4.1386972e-39
0.57467145 -0.19387905 1.2190001 4.3238073e-39
0.57699341 -0.19387905 1.2190001 3.9535997e-39
0.5793153 -0.19387905 1.2190001 3.5852151e-39
0.57925147 -0.19308382 1.2140001 6.7334857e-39
0.58156383 -0.19308382 1.2140001 9.952784e-39
0.56672001 -0.19360001 1.2320001 4.7865721e-39
0.56906676 -0.19360001 1.2320001 4.3259611e-39
0.56909436 -0.19281431 1.2270001 3.7735146e-39
0.57143146 -0.19281431 1.2270001 3.9568283e-39
0.57376862 -0.19281431 1.2270001 4.0468659e-39
0.57422763 -0.19218573 1.223 4.1394146e-39
0.57655716 -0.19218573 1.223 4.2326851e-39
0.57699341 -0.19155715 1.2190001 3.95395e-39
0.5793153 -0.19155715 1.2190001 3.7689197e-39
0.55914289 -0.1918743 1.2360001 2.0225431e-39
0.56331426 -0.19249523 1.24 3.590931e-39
0.56567621 -0.19249523 1.24 5.1535638e-39
0.56620574 -0.1918743 1.2360001 5.0631576e-39
0.56856 -0.1918743 1.2360001 4.9698872e-39
0.56906676 -0.19125335 1.2320001 4.6011117e-39
0.56909436 -0.19047716 1.2270001 4.2323319e-39
0.57143146 -0.19047716 1.2270001 4.1401363e-39
0.5718981 -0.1898562 1.223 4.1401335e-39
0.57422763 -0.1898562 1.223 4.1401321e-39
0.57655716 -0.1898562 1.223 4.140851e-39
0.55859047 -0.19013333 1.24 6.8880223e-39
0.55914289 -0.18952 1.2360001 3.1263655e-39
0.56149715 -0.18952 1.2360001 4.140872e-39
0.56385142 -0.18952 1.2360001 5.2450447e-39
0.56620574 -0.18952 1.2360001 5.0613681e-39
0.56672001 -0.18890668 1.2320001 4.7858617e-39
0.56906676 -0.18890668 1.2320001 4.5089202e-39
0.5714134 -0.18890668 1.2320001 4.1401377e-39
0.57143146 -0.18814 1.2270001 3.8649858e-39
0.5718981 -0.18752667 1.223 3.6823896e-39
0.57422763 -0.18752667 1.223 3.7727901e-39
0.57655716 -0.18752667 1.223 3.9571814e-39
0.55678862 -0.18716572 1.2360001 6.3370094e-39
0.55914289 -0.18716572 1.2360001 4.2301838e-39
0.56149715 -0.18716572 1.2360001 4.7830016e-39
0.56385142 -0.18716572 1.2360001 5.4276381e-39
0.56620574 -0.18716572 1.2360001 5.0620856e-39
0.56672001 -0.18656002 1.2320001 4.6933059e-39
0.56906676 -0.18656002 1.2320001 4.4142093e-39
0.5714134 -0.18656002 1.2320001 4.1394202e-39
0.55678862 -0.18481143 1.2360001 5.0538235e-39
0.55914289 -0.18481143 1.2360001 4.8748259e-39
0.56331426 -0.18540953 1.24 5.0588654e-39
0.56385142 -0.18481143 1.2360001 5.3350852e-39
0.56620574 -0.18481143 1.2360001 4.9680991e-39
0.56856 -0.18481143 1.2360001 4.6011089e-39
0.57091433 -0.18481143 1.2360001 4.3230856e-39
0.57326859 -0.18481143 1.2360001 4.1387014e-39
0.56095237 -0.18304761 1.24 5.5183932e-39
0.56331426 -0.18304761 1.24 5.3372362e-39
0.56385142 -0.18245716 1.2360001 5.2450475e-39
0.56620574 -0.18245716 1.2360001 4.8773524e-39
0.56856 -0.18245716 1.2360001 4.5092832e-39
0.57091433 -0.18245716 1.2360001 4.324166e-39
0.57326859 -0.18245716 1.2360001 4.1401391e-39
0.57562292 -0.18245716 1.2360001 3.9564695e-39
0.55859047 -0.18068571 1.24 3.6798952e-39
0.56095237 -0.18068571 1.24 5.2439643e-39
0.56331426 -0.18068571 1.24 5.1535596e-39
0.56385142 -0.18010285 1.2360001 5.0628157e-39
0.56620574 -0.18010285 1.2360001 4.6933367e-39
0.56856 -0.18010285 1.2360001 4.4174561e-39
0.57091433 -0.18010285 1.2360001 4.1401419e-39
0.5714134 -0.17952001 1.2320001 3.957187e-39
0.57376003 -0.17952001 1.2320001 3.9568283e-39
0.55859047 -0.17832382 1.24 3.5891275e-39
0.56095237 -0.17832382 1.24 5.0610066e-39
0.56331426 -0.17832382 1.24 4.9698886e-39
0.56385142 -0.17774859 1.2360001 4.9706187e-39
0.56620574 -0.17774859 1.2360001 4.601497e-39
0.56856 -0.17774859 1.2360001 4.3249059e-39
0.57091433 -0.17774859 1.2360001 4.0483148e-39
0.5714134 -0.17717335 1.2320001 3.8650054e-39
0.57376003 -0.17717335 1.2320001 4.0493966e-39
0.56095237 -0.1759619 1.24 4.9698844e-39
0.56558567 -0.17667143 1.245 4.9698886e-39
0.56567621 -0.1759619 1.24 4.878423e-39
0.56803811 -0.1759619 1.24 4.5092986e-39
0.56856 -0.17539428 1.2360001 4.1405203e-39
0.57091433 -0.17539428 1.2360001 3.7728182e-39
0.57326859 -0.17539428 1.2360001 3.4973173e-39
0.57376003 -0.17482668 1.2320001 3.772472e-39
0.57610673 -0.17482668 1.2320001 4.0479575e-39
0.56502384 -0.17486002 1.2490001 4.9706032e-39
0.56740284 -0.17486002 1.2490001 4.8791293e-39
0.5679571 -0.1743 1.245 4.8780601e-39
0.57032859 -0.1743 1.245 4.4170973e-39
0.5704 -0.1736 1.24 3.9557647e-39
0.57276189 -0.1736 1.24 3.4958669e-39
0.57326859 -0.17304002 1.2360001 3.1299655e-39
0.57562292 -0.17304002 1.2360001 3.4973117e-39
0.57797718 -0.17304002 1.2360001 3.8624872e-39
0.58033144 -0.17304002 1.2360001 3.1234845e-39
0.56502384 -0.17248096 1.2490001 4.879488e-39
0.56558567 -0.17192857 1.245 4.6947408e-39
0.5679571 -0.17192857 1.245 4.5103566e-39
0.56803811 -0.17123809 1.24 4.2327019e-39
0.5704 -0.17123809 1.24 3.9550388e-39
0.57091433 -0.17068571 1.2360001 3.6798882e-39
0.57326859 -0.17068571 1.2360001 3.4054608e-39
0.57562292 -0.17068571 1.2360001 3.2210765e-39
0.57797718 -0.17068571 1.2360001 3.0345272e-39
0.58033144 -0.17068571 1.2360001 4.3169872e-39
0.5632143 -0.16955714 1.245 4.8798453e-39
0.56558567 -0.16955714 1.245 4.5107083e-39
0.56567621 -0.1688762 1.24 4.2348445e-39
0.56803811 -0.1688762 1.24 4.1401419e-39
0.5704 -0.1688762 1.24 4.0468701e-39
0.57091433 -0.16833144 1.2360001 3.8639138e-39
0.57326859 -0.16833144 1.2360001 3.7728055e-39
0.57562292 -0.16833144 1.2360001 2.944861e-39
0.57797718 -0.16833144 1.2360001 2.2065981e-39
0.58033144 -0.16833144 1.2360001 5.5105333e-39
0.58268571 -0.16833144 1.2360001 8.8464603e-39
0.56095237 -0.16651428 1.24 4.7883686e-39
0.56331426 -0.16651428 1.24 4.511423e-39
0.56385142 -0.16597714 1.2360001 4.235199e-39
0.56620574 -0.16597714 1.2360001 4.140495e-39
0.56856 -0.16597714 1.2360001 4.1387e-39
0.57091433 -0.16597714 1.2360001 3.9557465e-39
0.57326859 -0.16597714 1.2360001 3.8646438e-39
0.57562292 -0.16597714 1.2360001 2.9448708e-39
0.57797718 -0.16597714 1.2360001 2.113713e-39
0.58033144 -0.16597714 1.2360001 5.5206213e-39
0.58268571 -0.16597714 1.2360001 8.861925e-39
0.56095237 -0.16415238 1.24 4.6958142e-39
0.56331426 -0.16415238 1.24 4.5124977e-39
0.56385142 -0.16362287 1.2360001 4.3270331e-39
0.56620574 -0.16362287 1.2360001 4.2326879e-39
0.56856 -0.16362287 1.2360001 4.2326879e-39
0.57091433 -0.16362287 1.2360001 4.0493756e-39
0.57326859 -0.16362287 1.2360001 3.9571884e-39
0.57562292 -0.16362287 1.2360001 3.036688e-39
0.57797718 -0.16362287 1.2360001 2.1140689e-39
0.58033144 -0.16362287 1.2360001 5.5306784e-39
0.58268571 -0.16362287 1.2360001 8.9577051e-39
0.56095237 -0.16179048 1.24 5.3372278e-39
0.56149715 -0.16126858 1.2360001 4.7862106e-39
0.56385142 -0.16126858 1.2360001 4.2355563e-39
0.56620574 -0.16126858 1.2360001 4.1401335e-39
0.56856 -0.16126858 1.2360001 4.0490155e-39
0.57091433 -0.16126858 1.2360001 4.0490169e-39
0.57326859 -0.16126858 1.2360001 4.0500917e-39
0.57562292 -0.16126858 1.2360001 3.3114602e-39
0.57797718 -0.16126858 1.2360001 2.5739625e-39
0.58033144 -0.16126858 1.2360001 5.9037727e-39
0.56095237 -0.15942857 1.24 6.0704796e-39
0.56149715 -0.1589143 1.2360001 5.0602891e-39
0.56385142 -0.1589143 1.2360001 4.1404964e-39
0.56620574 -0.1589143 1.2360001 3.9557465e-39
0.56856 -0.1589143 1.2360001 3.8649872e-39
0.57091433 -0.1589143 1.2360001 3.9571828e-39
0.5714134 -0.15840001 1.2320001 4.141937e-39
0.57376003 -0.15840001 1.2320001 3.5866276e-39
0.57797718 -0.1589143 1.2360001 3.0327644e-39
0.58033144 -0.1589143 1.2360001 6.2771599e-39
0.55859047 -0.15706666 1.24 5.2450363e-39
0.55914289 -0.15656 1.2360001 5.4258417e-39
0.56149715 -0.15656 1.2360001 4.4149379e-39
0.56202674 -0.15605335 1.2320001 3.4040244e-39
0.56620574 -0.15656 1.2360001 3.5880485e-39
0.56856 -0.15656 1.2360001 3.7727957e-39
0.56906676 -0.15605335 1.2320001 3.9571842e-39
0.5714134 -0.15605335 1.2320001 4.1423069e-39
0.57376003 -0.15605335 1.2320001 3.7681658e-39
0.57797718 -0.15656 1.2360001 3.3997308e-39
0.58033144 -0.15656 1.2360001 7.7583128e-39
0.55859047 -0.15470476 1.24 4.878416e-39
0.56095237 -0.15470476 1.24 4.8748259e-39
0.56149715 -0.15420572 1.2360001 3.7727985e-39
0.56385142 -0.15420572 1.2360001 2.7611717e-39
0.56620574 -0.15420572 1.2360001 3.2207052e-39
0.56856 -0.15420572 1.2360001 3.7727985e-39
0.57091433 -0.15420572 1.2360001 3.9575513e-39
0.5714134 -0.15370668 1.2320001 4.2309222e-39
0.57376003 -0.15370668 1.2320001 4.0415297e-39
0.55859047 -0.15234286 1.24 4.8751916e-39
0.56095237 -0.15234286 1.24 4.96666e-39
0.56149715 -0.15185143 1.2360001 4.139416e-39
0.56385142 -0.15185143 1.2360001 3.3121805e-39
0.56620574 -0.15185143 1.2360001 3.5894821e-39
0.56856 -0.15185143 1.2360001 3.7756726e-39
0.57091433 -0.15185143 1.2360001 3.4980235e-39
0.5714134 -0.15136001 1.2320001 3.1256775e-39
0.57376003 -0.15136001 1.2320001 4.871289e-39
0.56084287 -0.15058571 1.245 4.8762706e-39
0.5632143 -0.15058571 1.245 5.149975e-39
0.56331426 -0.14998095 1.24 4.506042e-39
0.56385142 -0.14949715 1.2360001 3.9557465e-39
0.56803811 -0.14998095 1.24 3.8664221e-39
0.5704 -0.14998095 1.24 3.866785e-39
0.57276189 -0.14998095 1.24 2.946642e-39
0.57326859 -0.14949715 1.2360001 2.1198002e-39
0.57562292 -0.14949715 1.2360001 5.7014224e-39
0.56084287 -0.14821428 1.245 4.6007669e-39
0.5632143 -0.14821428 1.245 4.6908004e-39
0.56331426 -0.14761904 1.24 4.2316145e-39
0.56567621 -0.14761904 1.24 3.8646284e-39
0.56803811 -0.14761904 1.24 3.8657032e-39
0.5704 -0.14761904 1.24 3.7745852e-39
0.57276189 -0.14761904 1.24 3.0352391e-39
0.57512379 -0.14761904 1.24 2.3884992e-39
0.57562292 -0.14714286 1.2360001 6.3561357e-39
0.56026578 -0.14631145 1.2490001 4.6011215e-39
0.56084287 -0.14584285 1.245 4.4170931e-39
0.5632143 -0.14584285 1.245 4.2312628e-39
0.56331426 -0.14525715 1.24 4.0483022e-39
0.5679571 -0.14584285 1.245 3.8649872e-39
0.56803811 -0.14525715 1.24 3.773509e-39
0.57270002 -0.14584285 1.245 3.7727915e-39
0.57276189 -0.14525715 1.24 3.2160388e-39
0.57512379 -0.14525715 1.24 2.6643672e-39
0.56026578 -0.14393239 1.2490001 5.0599402e-39
0.56264478 -0.14393239 1.2490001 4.5074923e-39
0.56502384 -0.14393239 1.2490001 4.047233e-39
0.56740284 -0.14393239 1.2490001 3.7713622e-39
0.56978196 -0.14393239 1.2490001 3.5876884e-39
0.57216096 -0.14393239 1.2490001 3.6795211e-39
0.57454002 -0.14393239 1.2490001 3.7713552e-39
0.57507145 -0.14347143 1.245 3.2174724e-39
0.57744282 -0.14347143 1.245 2.6650861e-39
0.56264478 -0.14155334 1.2490001 4.6900815e-39
0.56502384 -0.14155334 1.2490001 3.8635578e-39
0.56740284 -0.14155334 1.2490001 3.5884073e-39
0.56978196 -0.14155334 1.2490001 3.3128994e-39
0.57445145 -0.14212 1.2540001 3.496569e-39
0.57454002 -0.14155334 1.2490001 3.7709993e-39
0.57691908 -0.14155334 1.2490001 3.2192674e-39
0.57929814 -0.14155334 1.2490001 2.6661581e-39
0.56489718 -0.13973142 1.2540001 4.3223766e-39
0.56728572 -0.13973142 1.2540001 3.8631963e-39
0.56967431 -0.13973142 1.2540001 3.5884059e-39
0.57206285 -0.13973142 1.2540001 3.4058111e-39
0.57445145 -0.13973142 1.2540001 3.5898422e-39
0.57454002 -0.1391743 1.2490001 3.7738705e-39
0.57691908 -0.1391743 1.2490001 3.7681308e-39
0.57929814 -0.1391743 1.2490001 3.769256e-39
0.56489718 -0.13734286 1.2540001 4.0468659e-39
0.56728572 -0.13734286 1.2540001 3.8631935e-39
0.56967431 -0.13734286 1.2540001 3.68024e-39
0.57206285 -0.13734286 1.2540001 3.5894807e-39
0.57445145 -0.13734286 1.2540001 3.6813162e-39
0.57454002 -0.13679525 1.2490001 3.7706587e-39
0.57691908 -0.13679525 1.2490001 4.3173852e-39
0.57929814 -0.13679525 1.2490001 4.9792899e-39
0.56489718 -0.13495429 1.2540001 4.3227269e-39
0.56728572 -0.13495429 1.2540001 3.9553863e-39
0.56967431 -0.13495429 1.2540001 3.5894807e-39
0.57206285 -0.13495429 1.2540001 3.315049e-39
0.57445145 -0.13495429 1.2540001 3.1295829e-39
0.57683998 -0.13495429 1.2540001 2.9409275e-39
0.57922858 -0.13495429 1.2540001 4.7848499e-39
0.57929814 -0.13441619 1.2490001 6.7406954e-39
0.56489718 -0.13256571 1.2540001 4.5989523e-39
0.56728572 -0.13256571 1.2540001 4.1394174e-39
0.56967431 -0.13256571 1.2540001 3.5905569e-39
0.57206285 -0.13256571 1.2540001 3.0391838e-39
0.57445145 -0.13256571 1.2540001 2.5782126e-39
0.57683998 -0.13256571 1.2540001 2.2055359e-39
0.57922858 -0.13256571 1.2540001 5.344132e-39
0.56489718 -0.13017714 1.2540001 4.2319718e-39
0.56728572 -0.13017714 1.2540001 4.1401363e-39
0.56967431 -0.13017714 1.2540001 3.8649886e-39
0.57206285 -0.13017714 1.2540001 3.5898394e-39
0.57445145 -0.13017714 1.2540001 2.7611675e-39
0.57683998 -0.13017714 1.2540001 2.0211572e-39
0.57922858 -0.13017714 1.2540001 5.2437065e-39
0.56235331 -0.1282981 1.2590001 3.9579087e-39
0.56250858 -0.12778857 1.2540001 3.589845e-39
0.56489718 -0.12778857 1.2540001 3.8649886e-39
0.56728572 -0.12778857 1.2540001 4.1397762e-39
0.56967431 -0.12778857 1.2540001 4.1394174e-39
0.57206285 -0.12778857 1.2540001 4.1386986e-39
0.57445145 -0.12778857 1.2540001 3.0359552e-39
0.57683998 -0.12778857 1.2540001 1.9314713e-39
0.57922858 -0.12778857 1.2540001 5.2354514e-39
0.56235331 -0.1259 1.2590001 4.1412223e-39
0.56250858 -0.12540001 1.2540001 3.8653515e-39
0.56489718 -0.12540001 1.2540001 3.9564653e-39
0.56728572 -0.12540001 1.2540001 4.1397762e-39
0.56967431 -0.12540001 1.2540001 4.1390573e-39
0.57206285 -0.12540001 1.2540001 4.1383384e-39
0.57445145 -0.12540001 1.2540001 3.5869667e-39
0.57683998 -0.12540001 1.2540001 3.1274824e-39
0.57922858 -0.12540001 1.2540001 6.5397983e-39
0.56235331 -0.1235019 1.2590001 4.3234612e-39
0.56475145 -0.1235019 1.2590001 4.1397846e-39
0.56489718 -0.12301143 1.2540001 4.1401391e-39
0.56728572 -0.12301143 1.2540001 4.1397818e-39
0.56967431 -0.12301143 1.2540001 4.1376308e-39
0.56978196 -0.12252095 1.2490001 4.1383483e-39
0.57445145 -0.12301143 1.2540001 4.225879e-39
0.57683998 -0.12301143 1.2540001 4.3303332e-39
0.57922858 -0.12301143 1.2540001 7.8502786e-39
0.56235331 -0.12110382 1.2590001 4.1390755e-39
0.56489718 -0.12062287 1.2540001 3.9561122e-39
0.56728572 -0.12062287 1.2540001 3.9564751e-39
0.56967431 -0.12062287 1.2540001 3.9543269e-39
0.56978196 -0.12014192 1.2490001 3.9550458e-39
0.57445145 -0.12062287 1.2540001 4.3198781e-39
0.57683998 -0.12062287 1.2540001 4.7988587e-39
0.56235331 -0.11870572 1.2590001 4.0468827e-39
0.56264478 -0.11776286 1.2490001 3.7720839e-39
0.56502384 -0.11776286 1.2490001 3.7728055e-39
0.56740284 -0.11776286 1.2490001 3.7713762e-39
0.56978196 -0.11776286 1.2490001 3.7713818e-39
0.57216096 -0.11776286 1.2490001 4.5060714e-39
0.56475145 -0.11630762 1.2590001 3.6784603e-39
0.56489718 -0.11584572 1.2540001 3.6802498e-39
0.56728572 -0.11584572 1.2540001 3.7728083e-39
0.56740284 -0.11538382 1.2490001 3.2200073e-39
0.56978196 -0.11538382 1.2490001 2.7586872e-39
0.57216096 -0.11538382 1.2490001 4.6036578e-39
0.56264478 -0.11300477 1.2490001 3.6802484e-39
0.56502384 -0.11300477 1.2490001 3.7728013e-39
0.56740284 -0.11300477 1.2490001 2.7604585e-39
0.56978196 -0.11300477 1.2490001 1.7474108e-39
0.57216096 -0.11300477 1.2490001 4.701226e-39
0.56026578 -0.11062572 1.2490001 3.680963e-39
0.56264478 -0.11062572 1.2490001 3.6809644e-39
0.56502384 -0.11062572 1.2490001 3.7731531e-39
0.56740284 -0.11062572 1.2490001 2.9430421e-39
0.56637335 -0.10989333 1.268 3.131385e-39
0.56878859 -0.10989333 1.268 3.8646354e-39
0.57120377 -0.10989333 1.268 3.7731587e-39
0.56502384 -0.10824667 1.2490001 3.7735118e-39
0.56740284 -0.10824667 1.2490001 3.1259956e-39
0.56154287 -0.10747809 1.268 3.6809658e-39
0.56395811 -0.10747809 1.268 2.9441281e-39
0.56637335 -0.10747809 1.268 3.5894877e-39
0.56878859 -0.10747809 1.268 4.1405007e-39
0.57120377 -0.10747809 1.268 4.0486666e-39
0.56331432 -0.1053943 1.2720001 3.8642725e-39
0.56573719 -0.1053943 1.2720001 3.5887674e-39
0.56637335 -0.10506286 1.268 4.0479477e-39
0.56878859 -0.10506286 1.268 4.5071266e-39
0.57120377 -0.10506286 1.268 4.323457e-39
0.56089145 -0.10297143 1.2720001 4.2326977e-39
0.56331432 -0.10297143 1.2720001 3.9557437e-39
0.56573719 -0.10297143 1.2720001 3.6806015e-39
0.56637335 -0.10264762 1.268 3.7724426e-39
0.56878859 -0.10264762 1.268 3.9564737e-39
0.57120377 -0.10264762 1.268 3.6802526e-39
0.57361901 -0.10264762 1.268 3.4004441e-39
0.55847049 -0.1032362 1.3060001 5.6127356e-39
0.56095815 -0.1032362 1.3060001 4.9698858e-39
0.56331432 -0.10054857 1.2720001 4.0475848e-39
0.56573719 -0.10054857 1.2720001 3.7720895e-39
0.56637335 -0.10023239 1.268 3.5891472e-39
0.56878859 -0.10023239 1.268 3.4973089e-39
0.57120377 -0.10023239 1.268 3.1288865e-39
0.57361901 -0.10023239 1.268 2.7576096e-39
0.55349529 -0.10074858 1.3060001 4.8830697e-39
0.55847049 -0.10074858 1.3060001 5.3383026e-39
0.56095815 -0.10074858 1.3060001 4.9702459e-39
0.5612886 -0.10036287 1.3010001 4.6940262e-39
0.56376672 -0.10036287 1.3010001 4.4174393e-39
0.56089145 -0.098125719 1.2720001 4.1401391e-39
0.56331432 -0.098125719 1.2720001 3.8642781e-39
0.56573719 -0.098125719 1.2720001 3.6802652e-39
0.56637335 -0.097817145 1.268 3.6806421e-39
0.56878859 -0.097817145 1.268 3.6813498e-39
0.57120377 -0.097817145 1.268 2.9437876e-39
0.57361901 -0.097817145 1.268 2.2984462e-39
0.55100763 -0.098260961 1.3060001 4.604699e-39
0.55137622 -0.097884767 1.3010001 4.8830739e-39
0.55385435 -0.097884767 1.3010001 5.1571455e-39
0.55633241 -0.097884767 1.3010001 5.0638751e-39
0.55881053 -0.097884767 1.3010001 4.9698956e-39
0.5612886 -0.097884767 1.3010001 4.7858743e-39
0.56159997 -0.097508572 1.296 4.6018361e-39
0.56066382 -0.096079051 1.2770001 4.6918654e-39
0.56309623 -0.096079051 1.2770001 4.0475862e-39
0.56331432 -0.095702864 1.2720001 3.7702916e-39
0.56573719 -0.095702864 1.2720001 3.5884255e-39
0.56816006 -0.095702864 1.2720001 3.6799135e-39
0.57058293 -0.095702864 1.2720001 3.8646494e-39
0.57300574 -0.095702864 1.2720001 2.8505031e-39
0.57542861 -0.095702864 1.2720001 1.9303825e-39
0.57785141 -0.095702864 1.2720001 5.6260718e-39
0.55100763 -0.095773347 1.3060001 3.9629351e-39
0.54925716 -0.095040001 1.296 4.5139425e-39
0.55172575 -0.095040001 1.296 5.0649555e-39
0.55419427 -0.095040001 1.296 4.8791321e-39
0.55881053 -0.095406674 1.3010001 4.6943975e-39
0.5612886 -0.095406674 1.3010001 4.418905e-39
0.56159997 -0.095040001 1.296 4.1433845e-39
0.56015146 -0.094380006 1.2870001 4.418877e-39
0.56260288 -0.094380006 1.2870001 4.7844211e-39
0.56285906 -0.094013333 1.2820001 4.3248807e-39
0.56309623 -0.093646668 1.2770001 3.8635578e-39
0.56552863 -0.093646668 1.2770001 3.7717293e-39
0.56573719 -0.09328001 1.2720001 3.6802568e-39
0.56816006 -0.09328001 1.2720001 3.6799023e-39
0.57058293 -0.09328001 1.2720001 3.7728013e-39
0.57300574 -0.09328001 1.2720001 3.0334426e-39
0.57542861 -0.09328001 1.2720001 2.2970028e-39
0.57785141 -0.09328001 1.2720001 6.922179e-39
0.54925716 -0.092571422 1.296 4.1430076e-39
0.55172575 -0.092571422 1.296 5.0631562e-39
0.55419427 -0.092571422 1.296 4.7862148e-39
0.5566628 -0.092571422 1.296 4.5107139e-39
0.55913144 -0.092571422 1.296 4.0497498e-39
0.55943334 -0.092214279 1.291 3.6849133e-39
0.56189239 -0.092214279 1.291 3.9604142e-39
0.56260288 -0.091928571 1.2870001 4.3255996e-39
0.56285906 -0.091571428 1.2820001 4.0497315e-39
0.565301 -0.091571428 1.2820001 3.7717209e-39
0.56552863 -0.091214284 1.2770001 3.7724454e-39
0.56796098 -0.091214284 1.2770001 3.7720909e-39
0.56816006 -0.090857148 1.2720001 3.680261e-39
0.57282573 -0.091214284 1.2770001 3.6802498e-39
0.57300574 -0.090857148 1.2720001 3.2167563e-39
0.57542861 -0.090857148 1.2720001 2.7608579e-39
0.55137622 -0.090450481 1.3010001 5.614165e-39
0.55172575 -0.090102859 1.296 4.605408e-39
0.55419427 -0.090102859 1.296 4.5121376e-39
0.5566628 -0.090102859 1.296 4.5107027e-39
0.55913144 -0.090102859 1.296 4.2359137e-39
0.55943334 -0.089755237 1.291 3.961126e-39
0.56189239 -0.089755237 1.291 4.2352004e-39
0.56285906 -0.08912953 1.2820001 4.0490141e-39
0.56750578 -0.089477144 1.2870001 3.6798854e-39
0.56774288 -0.08912953 1.2820001 3.4958627e-39
0.56796098 -0.088781908 1.2770001 3.3121959e-39
0.57039332 -0.088781908 1.2770001 3.4958725e-39
0.55172575 -0.08763428 1.296 4.1469536e-39
0.55633241 -0.087972388 1.3010001 4.330989e-39
0.55881053 -0.087972388 1.3010001 4.6018277e-39
0.55943334 -0.087296195 1.291 4.3266786e-39
0.56189239 -0.087296195 1.291 4.5103538e-39
0.56260288 -0.087025717 1.2870001 4.6929472e-39
0.5650543 -0.087025717 1.2870001 4.1404964e-39
0.56750578 -0.087025717 1.2870001 3.680247e-39
0.56995714 -0.087025717 1.2870001 3.2203562e-39
0.57240862 -0.087025717 1.2870001 2.8530199e-39
0.57486004 -0.087025717 1.2870001 3.3122029e-39
0.5773114 -0.087025717 1.2870001 3.7703028e-39
0.57976288 -0.087025717 1.2870001 4.2251741e-39
0.5822143 -0.087025717 1.2870001 4.6994828e-39
0.58466578 -0.087025717 1.2870001 9.3264779e-39
0.55633241 -0.085494287 1.3010001 4.4178148e-39
0.55881053 -0.085494287 1.3010001 4.6929528e-39
0.55697429 -0.084837146 1.291 4.509272e-39
0.55770004 -0.08457429 1.2870001 4.2337711e-39
0.56015146 -0.08457429 1.2870001 4.3259723e-39
0.56260288 -0.08457429 1.2870001 4.4170875e-39
0.5650543 -0.08457429 1.2870001 3.9571912e-39
0.56750578 -0.08457429 1.2870001 3.5891317e-39
0.56995714 -0.08457429 1.2870001 3.4051034e-39
0.57240862 -0.08457429 1.2870001 3.3129162e-39
0.57664669 -0.084837146 1.291 3.128176e-39
0.57910568 -0.084837146 1.291 3.0345539e-39
0.57976288 -0.08457429 1.2870001 4.0458275e-39
0.5822143 -0.08457429 1.2870001 4.9807486e-39
0.58466578 -0.08457429 1.2870001 8.3841088e-39
0.55697429 -0.082378097 1.291 4.5096335e-39
0.55770004 -0.082122862 1.2870001 4.2337781e-39
0.56015146 -0.082122862 1.2870001 4.1426685e-39
0.56260288 -0.082122862 1.2870001 4.1415853e-39
0.56681049 -0.082378097 1.291 3.8657144e-39
0.56926954 -0.082378097 1.291 3.5887702e-39
0.56995714 -0.082122862 1.2870001 3.6809616e-39
0.57418764 -0.082378097 1.291 3.7717307e-39
0.57664669 -0.082378097 1.291 3.0359818e-39
0.57910568 -0.082378097 1.291 2.3913397e-39
0.58156478 -0.082378097 1.291 3.866806e-39
0.5822143 -0.082122862 1.2870001 5.3516597e-39
0.58466578 -0.082122862 1.2870001 7.4660902e-39
0.55697429 -0.079919048 1.291 4.6011145e-39
0.55943334 -0.079919048 1.291 4.4174547e-39
0.56189239 -0.079919048 1.291 4.2337963e-39
0.56435144 -0.079919048 1.291 4.1419496e-39
0.56681049 -0.079919048 1.291 3.8657144e-39
0.56926954 -0.079919048 1.291 3.5884073e-39
0.57172859 -0.079919048 1.291 3.5884017e-39
0.57418764 -0.079919048 1.291 3.5876982e-39
0.57664669 -0.079919048 1.291 3.1270998e-39
0.57910568 -0.079919048 1.291 2.7583159e-39
0.58156478 -0.079919048 1.291 5.7096018e-39
0.58402377 -0.079919048 1.291 8.7531436e-39
0.58466578 -0.079671435 1.2870001 9.3042126e-39
0.56159997 -0.077760004 1.296 4.6011341e-39
0.56189239 -0.077459998 1.291 4.3242095e-39
0.56435144 -0.077459998 1.291 4.140879e-39
0.56681049 -0.077459998 1.291 3.8657144e-39
0.56926954 -0.077459998 1.291 3.6809616e-39
0.57172859 -0.077459998 1.291 3.496569e-39
0.57418764 -0.077459998 1.291 3.4043804e-39
0.57664669 -0.077459998 1.291 3.3071695e-39
0.57910568 -0.077459998 1.291 3.2225563e-39
0.58156478 -0.077459998 1.291 7.6669397e-39
0.58402377 -0.077459998 1.291 1.2166183e-38
0.56159997 -0.075291425 1.296 4.5093056e-39
0.56406856 -0.075291425 1.296 4.3238648e-39
0.56435144 -0.075000949 1.291 4.140886e-39
0.56681049 -0.075000949 1.291 3.9571912e-39
0.56926954 -0.075000949 1.291 3.6816819e-39
0.57172859 -0.075000949 1.291 3.4962144e-39
0.57418764 -0.075000949 1.291 3.4047335e-39
0.57664669 -0.075000949 1.291 3.5823032e-39
0.57910568 -0.075000949 1.291 3.8708264e-39
0.58156478 -0.075000949 1.291 7.8571632e-39
0.58402377 -0.075000949 1.291 1.1894324e-38
0.56159997 -0.072822854 1.296 4.5085755e-39
0.56406856 -0.072822854 1.296 4.3234808e-39
0.56435144 -0.0725419 1.291 4.23199e-39
0.56681049 -0.0725419 1.291 3.9571856e-39
0.56926954 -0.0725419 1.291 3.772437e-39
0.57172859 -0.0725419 1.291 3.587687e-39
0.57418764 -0.0725419 1.291 3.4040216e-39
0.57664669 -0.0725419 1.291 3.9493005e-39
0.57910568 -0.0725419 1.291 4.5179936e-39
0.58156478 -0.0725419 1.291 8.0473054e-39
0.58402377 -0.0725419 1.291 1.1611965e-38
0.56159997 -0.070354283 1.296 4.4163673e-39
0.56406856 -0.070354283 1.296 4.2312628e-39
0.56435144 -0.070082851 1.291 4.1390629e-39
0.56681049 -0.070082851 1.291 3.8631935e-39
0.56926954 -0.070082851 1.291 3.5876856e-39
0.57172859 -0.070082851 1.291 3.1285067e-39
0.57418764 -0.070082851 1.291 2.6686258e-39
0.57664669 -0.070082851 1.291 3.5830487e-39
0.57910568 -0.070082851 1.291 4.5226712e-39
0.58156478 -0.070082851 1.291 7.559086e-39
0.58402377 -0.070082851 1.291 1.0595279e-38
0.56159997 -0.067885712 1.296 4.3241688e-39
0.56406856 -0.067885712 1.296 4.2312557e-39
0.56435144 -0.067623809 1.291 4.1394188e-39
0.56681049 -0.067623809 1.291 3.7724356e-39
0.56926954 -0.067623809 1.291 3.4040188e-39
0.57172859 -0.067623809 1.291 2.6693376e-39
0.57418764 -0.067623809 1.291 1.9328726e-39
0.57664669 -0.067623809 1.291 3.2171487e-39
0.57910568 -0.067623809 1.291 4.6126864e-39
0.58156478 -0.067623809 1.291 7.0973357e-39
0.58402377 -0.067623809 1.291 9.5822106e-39
0.56159997 -0.065417148 1.296 4.0486567e-39
0.56653714 -0.065417148 1.296 3.863911e-39
0.56900573 -0.065417148 1.296 3.5876898e-39
0.56926954 -0.065164767 1.291 3.4029482e-39
0.57172859 -0.065164767 1.291 2.7593893e-39
0.57641143 -0.065417148 1.296 2.1158346e-39
0.57664669 -0.065164767 1.291 4.3277912e-39
0.57910568 -0.065164767 1.291 6.5397702e-39
0.58156478 -0.065164767 1.291 8.2954417e-39
0.58402377 -0.065164767 1.291 9.9466743e-39
0.56624484 -0.063191436 1.3010001 3.680956e-39
0.56653714 -0.06294857 1.296 3.6806001e-39
0.56900573 -0.06294857 1.296 3.4951382e-39
0.56926954 -0.062705718 1.291 3.4022294e-39
0.57394284 -0.06294857 1.296 2.8505003e-39
0.57641143 -0.06294857 1.296 2.299158e-39
0.57664669 -0.062705718 1.291 5.4402498e-39
0.57910568 -0.062705718 1.291 8.5687748e-39
0.58156478 -0.062705718 1.291 9.4936079e-39
0.58402377 -0.062705718 1.291 1.0402263e-38
0.56095815 -0.060946673 1.3060001 4.2352018e-39
0.56344575 -0.060946673 1.3060001 3.9586163e-39
0.56593335 -0.060946673 1.3060001 3.7745866e-39
0.56624484 -0.060713336 1.3010001 3.6809588e-39
0.56653714 -0.060480002 1.296 3.6809616e-39
0.56900573 -0.060480002 1.296 3.2221457e-39
0.56926954 -0.060246665 1.291 2.8551596e-39
0.57172859 -0.060246665 1.291 2.5749882e-39
0.57418764 -0.060246665 1.291 2.3910061e-39
0.57664669 -0.060246665 1.291 5.5324735e-39
0.57910568 -0.060246665 1.291 8.7589183e-39
0.58156478 -0.060246665 1.291 8.935779e-39
0.55561429 -0.058682859 1.3110001 3.2250127e-39
0.55811143 -0.058682859 1.3110001 4.5107139e-39
0.56060863 -0.058682859 1.3110001 4.3274072e-39
0.56310576 -0.058682859 1.3110001 4.2355661e-39
0.5656029 -0.058682859 1.3110001 3.9589792e-39
0.56376672 -0.058235243 1.3010001 3.7738719e-39
0.56624484 -0.058235243 1.3010001 3.6813176e-39
0.5687229 -0.058235243 1.3010001 3.6809602e-39
0.56900573 -0.058011428 1.296 2.9462791e-39
0.56926954 -0.05778762 1.291 2.3034278e-39
0.57172859 -0.05778762 1.291 2.3916732e-39
0.57418764 -0.05778762 1.291 2.4821144e-39
0.57664669 -0.05778762 1.291 5.7168451e-39
0.57910568 -0.05778762 1.291 8.928582e-39
0.58156478 -0.05778762 1.291 8.3754236e-39
0.55561429 -0.056185719 1.3110001 3.5927219e-39
0.55811143 -0.056185719 1.3110001 4.787305e-39
0.56060863 -0.056185719 1.3110001 4.4196085e-39
0.56310576 -0.056185719 1.3110001 4.0522609e-39
0.5656029 -0.056185719 1.3110001 3.8660732e-39
0.56376672 -0.055757146 1.3010001 3.7731573e-39
0.56624484 -0.055757146 1.3010001 3.8649886e-39
0.56653714 -0.055542856 1.296 3.9575429e-39
0.56900573 -0.055542856 1.296 3.3136211e-39
0.56926954 -0.05532857 1.291 2.6704096e-39
0.57172859 -0.05532857 1.291 2.4838646e-39
0.57418764 -0.05532857 1.291 2.2977161e-39
0.57664669 -0.05532857 1.291 5.6224831e-39
0.57910568 -0.05532857 1.291 9.0189671e-39
0.58156478 -0.05532857 1.291 8.2824965e-39
0.55522668 -0.053893339 1.3160001 3.1292284e-39
0.55561429 -0.053688575 1.3110001 4.0526098e-39
0.55811143 -0.053688575 1.3110001 5.0628045e-39
0.56060863 -0.053688575 1.3110001 4.5125132e-39
0.56310576 -0.053688575 1.3110001 3.9586275e-39
0.56344575 -0.053483814 1.3060001 3.8653529e-39
0.56376672 -0.05327905 1.3010001 3.7735146e-39
0.56624484 -0.05327905 1.3010001 3.9571814e-39
0.56653714 -0.053074285 1.296 4.2323333e-39
0.56900573 -0.053074285 1.296 3.5891303e-39
0.56926954 -0.052869525 1.291 3.0366796e-39
0.57172859 -0.052869525 1.291 2.5760644e-39
0.57418764 -0.052869525 1.291 2.1187212e-39
0.57664669 -0.052869525 1.291 5.6199916e-39
0.57910568 -0.052869525 1.291 9.1086572e-39
0.55522668 -0.051386669 1.3160001 3.7745852e-39
0.55773336 -0.051386669 1.3160001 4.3266758e-39
0.55811143 -0.051191431 1.3110001 4.7865749e-39
0.56060863 -0.051191431 1.3110001 4.4178022e-39
0.56095815 -0.050996196 1.3060001 4.0490239e-39
0.56344575 -0.050996196 1.3060001 3.589845e-39
0.56376672 -0.050800957 1.3010001 3.037753e-39
0.56624484 -0.050800957 1.3010001 3.3136154e-39
0.56653714 -0.050605714 1.296 3.5884101e-39
0.56681049 -0.050410476 1.291 2.7611802e-39
0.56926954 -0.050410476 1.291 2.0232648e-39
0.57172859 -0.050410476 1.291 3.6773785e-39
0.57418764 -0.050410476 1.291 5.3376411e-39
0.55522668 -0.048880003 1.3160001 4.5092692e-39
0.55773336 -0.048880003 1.3160001 4.509988e-39
0.55811143 -0.04869429 1.3110001 4.6018319e-39
0.56060863 -0.04869429 1.3110001 4.4160169e-39
0.56095815 -0.048508577 1.3060001 4.2326977e-39
0.5612886 -0.048322864 1.3010001 3.314693e-39
0.56376672 -0.048322864 1.3010001 2.3949018e-39
0.56406856 -0.04813714 1.296 2.6711243e-39
0.56435144 -0.047951426 1.291 3.0381104e-39
0.56681049 -0.047951426 1.291 2.0254116e-39
0.56926954 -0.047951426 1.291 1.0145317e-39
0.57172859 -0.047951426 1.291 4.7790962e-39
0.55773336 -0.046373338 1.3160001 4.2348417e-39
0.55811143 -0.046197146 1.3110001 4.4174491e-39
0.56060863 -0.046197146 1.3110001 4.3249087e-39
0.55913144 -0.045668572 1.296 3.497285e-39
0.56159997 -0.045668572 1.296 2.8540764e-39
0.56406856 -0.045668572 1.296 3.0377474e-39
0.56435144 -0.045492381 1.291 3.3146888e-39
0.56681049 -0.045492381 1.291 2.3920291e-39
0.56926954 -0.045492381 1.291 1.5619784e-39
0.57172859 -0.045492381 1.291 5.4338347e-39
0.55733627 -0.044033337 1.3210001 3.7760201e-39
0.55773336 -0.043866672 1.3160001 4.0518867e-39
0.55811143 -0.043700002 1.3110001 4.3259695e-39
0.55847049 -0.043533336 1.3060001 4.2341466e-39
0.5566628 -0.043200001 1.296 4.1390699e-39
0.55913144 -0.043200001 1.296 3.7706405e-39
0.56159997 -0.043200001 1.296 3.4043733e-39
0.56406856 -0.043200001 1.296 3.4965662e-39
0.56435144 -0.043033335 1.291 3.5887604e-39
0.56681049 -0.043033335 1.291 2.8504891e-39
0.56926954 -0.043033335 1.291 2.1133529e-39
0.55985242 -0.041517146 1.3210001 4.3277506e-39
0.55847049 -0.041045718 1.3060001 4.1419496e-39
0.55451524 -0.040574286 1.291 3.953964e-39
0.55697429 -0.040574286 1.291 3.6788078e-39
0.56159997 -0.04073143 1.296 3.404016e-39
0.56406856 -0.04073143 1.296 3.4043733e-39
0.56435144 -0.040574286 1.291 3.4040132e-39
0.56681049 -0.040574286 1.291 2.8494129e-39
0.56926954 -0.040574286 1.291 2.2055513e-39
0.55985242 -0.039000954 1.3210001 4.6036158e-39
0.55847049 -0.038558099 1.3060001 4.1415895e-39
0.55451524 -0.038115237 1.291 3.8624872e-39
0.55697429 -0.038115237 1.291 3.6791666e-39
0.56159997 -0.038262855 1.296 3.4958515e-39
0.56406856 -0.038262855 1.296 3.4047321e-39
0.56435144 -0.038115237 1.291 3.3121791e-39
0.56681049 -0.038115237 1.291 2.8486968e-39
0.55847049 -0.036070481 1.3060001 4.1405133e-39
0.55451524 -0.035656188 1.291 3.7713692e-39
0.55697429 -0.035656188 1.291 3.6795267e-39
0.56376672 -0.035932384 1.3010001 3.4958529e-39
0.56624484 -0.035932384 1.3010001 3.1285081e-39
0.55598289 -0.033582862 1.3060001 4.6011117e-39
0.55847049 -0.033582862 1.3060001 4.1397902e-39
0.56842101 -0.033582862 1.3060001 2.9451945e-39
0.57090861 -0.033582862 1.3060001 2.3931095e-39
0.57339621 -0.033582862 1.3060001 3.2189143e-39
0.55598289 -0.031095238 1.3060001 4.4163617e-39
0.55847049 -0.031095238 1.3060001 4.0486666e-39
0.5612886 -0.030976191 1.3010001 3.588766e-39
0.56376672 -0.030976191 1.3010001 3.4962102e-39
0.56624484 -0.030976191 1.3010001 3.2196248e-39
0.57090861 -0.031095238 1.3060001 2.9430477e-39
0.57339621 -0.031095238 1.3060001 4.1422971e-39
0.55522668 -0.028826667 1.3160001 4.3259569e-39
0.55561429 -0.028717143 1.3110001 4.3255982e-39
0.55811143 -0.028717143 1.3110001 4.3252408e-39
0.55847049 -0.02860762 1.3060001 4.0493784e-39
0.56095815 -0.02860762 1.3060001 3.7731531e-39
0.5612886 -0.028498096 1.3010001 3.5884059e-39
0.56376672 -0.028498096 1.3010001 3.4047377e-39
0.56624484 -0.028498096 1.3010001 3.4929901e-39
0.5687229 -0.028498096 1.3010001 3.5848424e-39
0.57339621 -0.02860762 1.3060001 5.0710875e-39
0.55482 -0.026420001 1.3210001 4.5103454e-39
0.55522668 -0.026320001 1.3160001 4.2334039e-39
0.55773336 -0.026320001 1.3160001 4.1419286e-39
0.55811143 -0.026220001 1.3110001 4.0504504e-39
0.56060863 -0.026220001 1.3110001 3.8660606e-39
0.56095815 -0.026120001 1.3060001 3.6816735e-39
0.56344575 -0.026120001 1.3060001 3.4054509e-39
0.56593335 -0.026120001 1.3060001 3.2217898e-39
0.56842101 -0.026120001 1.3060001 3.0338238e-39
0.57090861 -0.026120001 1.3060001 2.7572691e-39
0.55482 -0.023903811 1.3210001 4.4188728e-39
0.55522668 -0.023813335 1.3160001 4.2352004e-39
0.55773336 -0.023813335 1.3160001 4.0515294e-39
0.55811143 -0.023722859 1.3110001 3.8664221e-39
0.56060863 -0.023722859 1.3110001 3.6827511e-39
0.56310576 -0.023722859 1.3110001 3.589838e-39
0.56344575 -0.023632383 1.3060001 3.313614e-39
0.56376672 -0.023541907 1.3010001 3.1295899e-39
0.56624484 -0.023541907 1.3010001 2.5749938e-39
0.5543943 -0.021468572 1.3260001 4.5099964e-39
0.55482 -0.02138762 1.3210001 4.3270429e-39
0.55733627 -0.02138762 1.3210001 4.1433691e-39
0.55773336 -0.021306667 1.3160001 3.9589778e-39
0.56024009 -0.021306667 1.3160001 3.8660662e-39
0.56060863 -0.021225717 1.3110001 3.8664249e-39
0.56310576 -0.021225717 1.3110001 3.8657046e-39
0.56344575 -0.021144763 1.3060001 3.3128966e-39
0.56376672 -0.021063812 1.3010001 2.7618836e-39
0.54681718 -0.018942859 1.3260001 4.8784384e-39
0.54934293 -0.018942859 1.3260001 4.8784286e-39
0.55186862 -0.018942859 1.3260001 4.6947478e-39
0.5543943 -0.018942859 1.3260001 4.5103552e-39
0.55692005 -0.018942859 1.3260001 4.2352032e-39
0.55733627 -0.01887143 1.3210001 4.0515364e-39
0.55773336 -0.018800002 1.3160001 3.9586275e-39
0.56024009 -0.018800002 1.3160001 3.8664417e-39
0.56060863 -0.018728573 1.3110001 3.9582856e-39
0.56310576 -0.018728573 1.3110001 4.1401531e-39
0.54429144 -0.016417144 1.3260001 4.6929626e-39
0.54681718 -0.016417144 1.3260001 4.6933255e-39
0.54934293 -0.016417144 1.3260001 4.7858743e-39
0.55186862 -0.016417144 1.3260001 4.6936758e-39
0.5543943 -0.016417144 1.3260001 4.6014732e-39
0.55692005 -0.016417144 1.3260001 4.2348417e-39
0.55944574 -0.016417144 1.3260001 3.9597037e-39
0.55985242 -0.016355239 1.3210001 3.8657256e-39
0.56236863 -0.016355239 1.3210001 3.772472e-39
0.54429144 -0.01389143 1.3260001 4.5100118e-39
0.54681718 -0.01389143 1.3260001 4.6011397e-39
0.54934293 -0.01389143 1.3260001 4.6933227e-39
0.55186862 -0.01389143 1.3260001 4.6936716e-39
0.5543943 -0.01389143 1.3260001 4.6933073e-39
0.55692005 -0.01389143 1.3260001 4.2348417e-39
0.55944574 -0.01389143 1.3260001 3.866069e-39
0.56197149 -0.01389143 1.3260001 3.7728041e-39
0.56236863 -0.013839048 1.3210001 3.6802638e-39
0.5463438 -0.011408572 1.3310001 4.6029263e-39
0.54887909 -0.011408572 1.3310001 4.692985e-39
0.55141431 -0.011408572 1.3310001 4.7848023e-39
0.55186862 -0.011365715 1.3260001 4.7847855e-39
0.55648476 -0.011408572 1.3310001 4.7847813e-39
0.55692005 -0.011365715 1.3260001 4.3248835e-39
0.55944574 -0.011365715 1.3260001 3.8642711e-39
0.56197149 -0.011365715 1.3260001 3.7717181e-39
0.5463438 -0.0088733332 1.3310001 4.6936716e-39
0.54887909 -0.0088733332 1.3310001 4.7847967e-39
0.55141431 -0.0088733332 1.3310001 4.8769853e-39
0.55394953 -0.0088733332 1.3310001 4.8791321e-39
0.55648476 -0.0088733332 1.3310001 4.9688096e-39
0.55902004 -0.0088733332 1.3310001 4.4163575e-39
0.56155527 -0.0088733332 1.3310001 3.8649858e-39
0.6038934 -0.0090133343 1.3520001 4.7841142e-39
0.60646862 -0.0090133343 1.3520001 4.5085951e-39
0.60679144 -0.0089800004 1.3470001 4.1412405e-39
0.60935718 -0.0089800004 1.3470001 3.7756866e-39
0.54839623 -0.006361905 1.3360001 4.6011047e-39
0.54887909 -0.0063380958 1.3310001 4.601462e-39
0.55141431 -0.0063380958 1.3310001 4.6936618e-39
0.55394953 -0.0063380958 1.3310001 4.6936674e-39
0.55648476 -0.0063380958 1.3310001 4.785856e-39
0.55692005 -0.006314286 1.3260001 4.2337613e-39
0.55944574 -0.006314286 1.3260001 3.7742251e-39
0.56197149 -0.006314286 1.3260001 3.9571786e-39
0.56449717 -0.006314286 1.3260001 4.1404936e-39
0.56702286 -0.006314286 1.3260001 3.7713622e-39
0.5987429 -0.0064380961 1.3520001 6.4428817e-39
0.60131812 -0.0064380961 1.3520001 3.7742713e-39
0.6038934 -0.0064380961 1.3520001 4.141972e-39
0.60646862 -0.0064380961 1.3520001 4.510016e-39
0.60679144 -0.0064142863 1.3470001 4.4181665e-39
0.60935718 -0.0064142863 1.3470001 4.3263226e-39
0.61192292 -0.0064142863 1.3470001 4.3263142e-39
0.54839623 -0.0038171432 1.3360001 4.6014732e-39
0.54887909 -0.0038028574 1.3310001 4.510002e-39
0.55141431 -0.0038028574 1.3310001 4.5096377e-39
0.55394953 -0.0038028574 1.3310001 4.5092748e-39
0.55648476 -0.0038028574 1.3310001 4.6011075e-39
0.55692005 -0.0037885716 1.3260001 4.1422845e-39
0.55944574 -0.0037885716 1.3260001 3.7738663e-39
0.56197149 -0.0037885716 1.3260001 4.0486567e-39
0.56236863 -0.003774286 1.3210001 4.3234472e-39
0.56488478 -0.003774286 1.3210001 4.0468673e-39
0.59396291 -0.0038485718 1.3470001 9.0189503e-39
0.59652859 -0.0038485718 1.3470001 5.7020979e-39
0.59909433 -0.0038485718 1.3470001 2.3967304e-39
0.60166001 -0.0038485718 1.3470001 3.4101439e-39
0.60422575 -0.0038485718 1.3470001 4.5114454e-39
0.60679144 -0.0038485718 1.3470001 4.6943919e-39
0.61161911 -0.0038628574 1.3520001 4.8784188e-39
0.63188577 -0.0039085713 1.368 6.3542383e-39
0.63449144 -0.0039085713 1.368 5.343706e-39
0.63709718 -0.0039085713 1.368 5.067859e-39
0.6373648 -0.003894286 1.363 4.7919811e-39
0.54839623 -0.0012723811 1.3360001 4.4188896e-39
0.54887909 -0.0012676191 1.3310001 4.4181834e-39
0.55141431 -0.0012676191 1.3310001 4.3259737e-39
0.55186862 -0.0012628572 1.3260001 4.3259597e-39
0.5543943 -0.0012628572 1.3260001 4.3259583e-39
0.55692005 -0.0012628572 1.3260001 3.682391e-39
0.55733627 -0.0012580954 1.3210001 3.0373901e-39
0.55985242 -0.0012580954 1.3210001 3.496569e-39
0.56236863 -0.0012580954 1.3210001 4.0475834e-39
0.56702286 -0.0012628572 1.3260001 3.7717195e-39
0.56954861 -0.0012628572 1.3260001 3.587687e-39
0.58883148 -0.0012828573 1.3470001 7.9320247e-39
0.59139717 -0.0012828573 1.3470001 7.1807662e-39
0.59396291 -0.0012828573 1.3470001 6.4317456e-39
0.59652859 -0.0012828573 1.3470001 4.9677712e-39
0.59909433 -0.0012828573 1.3470001 3.4069139e-39
0.60166001 -0.0012828573 1.3470001 4.2370095e-39
0.60422575 -0.0012828573 1.3470001 5.1567994e-39
0.60679144 -0.0012828573 1.3470001 4.8802181e-39
0.60935718 -0.0012828573 1.3470001 4.695831e-39
0.63188577 -0.0013028572 1.368 4.792316e-39
0.63449144 -0.0013028572 1.368 3.8747052e-39
0.63476861 -0.0012980952 1.363 3.9633387e-39
0.54887909 0.0012676191 1.3310001 4.2344998e-39
0.55141431 0.0012676191 1.3310001 4.2341326e-39
0.55394953 0.0012676191 1.3310001 4.1430048e-39
0.5543943 0.0012628572 1.3260001 4.1422859e-39
0.55692005 0.0012628572 1.3260001 3.2228547e-39
0.55733627 0.0012580954 1.3210001 2.3034236e-39
0.55985242 0.0012580954 1.3210001 3.0377488e-39
0.56236863 0.0012580954 1.3210001 3.7724356e-39
0.56488478 0.0012580954 1.3210001 3.5891261e-39
0.56954861 0.0012628572 1.3260001 3.4980067e-39
0.58883148 0.0012828573 1.3470001 4.6944381e-39
0.59139717 0.0012828573 1.3470001 4.3216871e-39
0.59652859 0.0012828573 1.3470001 4.2338005e-39
0.60131812 0.0012876191 1.3520001 4.5089385e-39
0.6038934 0.0012876191 1.3520001 5.1560805e-39
0.60646862 0.0012876191 1.3520001 5.7989276e-39
0.60904384 0.0012876191 1.3520001 5.1560777e-39
0.62667429 0.0013028572 1.368 4.235583e-39
0.63204002 0.0013085714 1.3740001 4.2337795e-39
0.63465714 0.0013085714 1.3740001 3.3136211e-39
0.63449144 0.0013028572 1.368 2.4867541e-39
0.63476861 0.0012980952 1.363 2.9459428e-39
0.55141431 0.0038028574 1.3310001 4.4174379e-39
0.55394953 0.0038028574 1.3310001 4.5092706e-39
0.5543943 0.0037885716 1.3260001 4.6014634e-39
0.55692005 0.0037885716 1.3260001 3.866062e-39
0.55733627 0.003774286 1.3210001 3.1306591e-39
0.55985242 0.003774286 1.3210001 3.5898366e-39
0.56236863 0.003774286 1.3210001 4.1408538e-39
0.56488478 0.003774286 1.3210001 3.8642753e-39
0.56954861 0.0037885716 1.3260001 3.6827581e-39
0.57423145 0.0038028574 1.3310001 3.7742363e-39
0.57676673 0.0038028574 1.3310001 3.9597065e-39
0.57930195 0.0038028574 1.3310001 4.2341438e-39
0.59396291 0.0038485718 1.3470001 4.2334488e-39
0.59652859 0.0038485718 1.3470001 4.233439e-39
