# .PCD v0.7 - Point Cloud Data file format
VERSION 0.7
FIELDS x y z rgb
SIZE 4 4 4 4
TYPE F F F F
COUNT 1 1 1 1
WIDTH 1061
HEIGHT 1
VIEWPOINT 0 0 0 1 0 0 0
POINTS 1061
DATA ascii
-0.23716001 0.072893336 1.0780001 2.3415903e-38
-0.23154001 0.072420008 1.0710001 2.3413405e-38
-0.22950001 0.072420008 1.0710001 2.3411646e-38
-0.22746003 0.072420008 1.0710001 2.3215455e-38
-0.22542003 0.072420008 1.0710001 2.312224e-38
-0.28438669 0.074946672 1.0780001 2.341268e-38
-0.28233334 0.074946672 1.0780001 2.3412672e-38
-0.25878286 0.074668571 1.074 2.3414484e-38
-0.25564003 0.074946672 1.0780001 2.3416261e-38
-0.25358668 0.074946672 1.0780001 2.3415184e-38
-0.25153336 0.074946672 1.0780001 2.3414107e-38
-0.24742667 0.074946672 1.0780001 2.3414467e-38
-0.24537335 0.074946672 1.0780001 2.3410881e-38
-0.24332002 0.074946672 1.0780001 2.3411257e-38
-0.23832572 0.074668571 1.074 2.3413768e-38
-0.23358001 0.074460007 1.0710001 2.3414121e-38
-0.23154001 0.074460007 1.0710001 2.3413773e-38
-0.22885716 0.074251436 1.0680001 2.3405899e-38
-0.22682287 0.074251436 1.0680001 2.3306909e-38
-0.23766002 0.076500006 1.0710001 2.3412315e-38
-0.23562001 0.076500006 1.0710001 2.3411599e-38
-0.23089145 0.07628572 1.0680001 2.3318362e-38
-0.22885716 0.07628572 1.0680001 2.3308677e-38
-0.22682287 0.07628572 1.0680001 2.3307245e-38
-0.28955048 0.077146672 1.052 2.2572683e-38
-0.28754666 0.077146672 1.052 2.2940716e-38
-0.28635716 0.077366672 1.0550001 2.3403802e-38
-0.28434765 0.077366672 1.0550001 2.340771e-38
-0.28069332 0.078026667 1.064 2.3411954e-38
-0.27866668 0.078026667 1.064 2.3411954e-38
-0.27664 0.078026667 1.064 2.3411596e-38
-0.26425239 0.077366672 1.0550001 2.3411254e-38
-0.26224285 0.077366672 1.0550001 2.3415915e-38
-0.26023334 0.077366672 1.0550001 2.3415552e-38
-0.25895813 0.077586666 1.0580001 2.3414843e-38
-0.25694287 0.077586666 1.0580001 2.3414492e-38
-0.25492764 0.077586666 1.0580001 2.341448e-38
-0.2529124 0.077586666 1.0580001 2.3415903e-38
-0.25160858 0.077806674 1.0610001 2.3415902e-38
-0.24826665 0.078026667 1.064 2.3412313e-38
-0.24624 0.078026667 1.064 2.3413389e-38
-0.24421334 0.078026667 1.064 2.3413035e-38
-0.24218667 0.078026667 1.064 2.3413039e-38
-0.24016 0.078026667 1.064 2.3412676e-38
-0.23544097 0.077806674 1.0610001 2.3412315e-38
-0.23342001 0.077806674 1.0610001 2.3411957e-38
-0.23139907 0.077806674 1.0610001 2.3412327e-38
-0.22937812 0.077806674 1.0610001 2.3314762e-38
-0.22735716 0.077806674 1.0610001 2.3305438e-38
-0.2915543 0.079150476 1.052 2.2479793e-38
-0.29037622 0.079376198 1.0550001 2.2663783e-38
-0.28754666 0.079150476 1.052 2.3034314e-38
-0.28554288 0.079150476 1.052 2.3412728e-38
-0.28434765 0.079376198 1.0550001 2.3412679e-38
-0.28314099 0.079601914 1.0580001 2.3412675e-38
-0.28112575 0.079601914 1.0580001 2.3412313e-38
-0.27990192 0.079827629 1.0610001 2.3411954e-38
-0.27788097 0.079827629 1.0610001 2.3411596e-38
-0.2722905 0.079376198 1.0550001 2.3411596e-38
-0.27028096 0.079376198 1.0550001 2.3411596e-38
-0.26827145 0.079376198 1.0550001 2.3411954e-38
-0.26626191 0.079376198 1.0550001 2.3414824e-38
-0.26425239 0.079376198 1.0550001 2.3415183e-38
-0.26224285 0.079376198 1.0550001 2.3415546e-38
-0.26023334 0.079376198 1.0550001 2.3414833e-38
-0.2582238 0.079376198 1.0550001 2.3414111e-38
-0.25621432 0.079376198 1.0550001 2.3414466e-38
-0.25492764 0.079601914 1.0580001 2.3415184e-38
-0.2529124 0.079601914 1.0580001 2.3415186e-38
-0.25089717 0.079601914 1.0580001 2.3415543e-38
-0.24958763 0.079827629 1.0610001 2.3411954e-38
-0.2475667 0.079827629 1.0610001 2.3411954e-38
-0.24554574 0.079827629 1.0610001 2.3411954e-38
-0.24352477 0.079827629 1.0610001 2.3412322e-38
-0.24150383 0.079827629 1.0610001 2.3411973e-38
-0.23948288 0.079827629 1.0610001 2.3411604e-38
-0.23746192 0.079827629 1.0610001 2.3411237e-38
-0.23477526 0.079601914 1.0580001 2.341088e-38
-0.23276003 0.079601914 1.0580001 2.3411959e-38
-0.23139907 0.079827629 1.0610001 2.3413398e-38
-0.22937812 0.079827629 1.0610001 2.3311881e-38
-0.22735716 0.079827629 1.0610001 2.3210721e-38
-0.2915543 0.081154287 1.052 2.238758e-38
-0.29037622 0.081385717 1.0550001 2.2755582e-38
-0.28836671 0.081385717 1.0550001 2.3036413e-38
-0.28635716 0.081385717 1.0550001 2.3414494e-38
-0.28515622 0.081617147 1.0580001 2.3412317e-38
-0.28314099 0.081617147 1.0580001 2.3411956e-38
-0.28112575 0.081617147 1.0580001 2.3411954e-38
-0.27911049 0.081617147 1.0580001 2.3411954e-38
-0.2722905 0.081385717 1.0550001 2.3411954e-38
-0.27028096 0.081385717 1.0550001 2.3411954e-38
-0.26827145 0.081385717 1.0550001 2.3412313e-38
-0.26550475 0.081154287 1.052 2.3413031e-38
-0.26350099 0.081154287 1.052 2.3414108e-38
-0.26149717 0.081154287 1.052 2.3416266e-38
-0.25949335 0.081154287 1.052 2.3417348e-38
-0.25748953 0.081154287 1.052 2.3417012e-38
-0.25548571 0.081154287 1.052 2.3417033e-38
-0.25420478 0.081385717 1.0550001 2.3414496e-38
-0.25219527 0.081385717 1.0550001 2.3414473e-38
-0.24352477 0.081848577 1.0610001 2.3411959e-38
-0.23611906 0.081385717 1.0550001 2.3410878e-38
-0.23477526 0.081617147 1.0580001 2.3411601e-38
-0.23276003 0.081617147 1.0580001 2.3412323e-38
-0.23139907 0.081848577 1.0610001 2.3408376e-38
-0.22937812 0.081848577 1.0610001 2.3217168e-38
-0.22735716 0.081848577 1.0610001 2.3119237e-38
-0.2915543 0.083158098 1.052 2.2571592e-38
-0.28955048 0.083158098 1.052 2.3031412e-38
-0.28754666 0.083158098 1.052 2.3225772e-38
-0.28554288 0.083158098 1.052 2.3416259e-38
-0.28515622 0.083632387 1.0580001 2.3413032e-38
-0.28233811 0.083395243 1.0550001 2.3413748e-38
-0.28112575 0.083632387 1.0580001 2.3412313e-38
-0.2722905 0.083395243 1.0550001 2.3412313e-38
-0.27028096 0.083395243 1.0550001 2.3413031e-38
-0.26750857 0.083158098 1.052 2.3412313e-38
-0.26550475 0.083158098 1.052 2.3412673e-38
-0.26249906 0.08284191 1.0480001 2.3414829e-38
-0.26149717 0.083158098 1.052 2.3417347e-38
-0.25850669 0.08284191 1.0480001 2.3417354e-38
-0.2565105 0.08284191 1.0480001 2.3417043e-38
-0.25451431 0.08284191 1.0480001 2.3415655e-38
-0.25348189 0.083158098 1.052 2.3414169e-38
-0.24652953 0.08284191 1.0480001 2.3412313e-38
-0.23745143 0.083158098 1.052 2.3412672e-38
-0.23544763 0.083158098 1.052 2.3412673e-38
-0.23276003 0.083632387 1.0580001 2.3409819e-38
-0.23074478 0.083632387 1.0580001 2.3403353e-38
-0.22872953 0.083632387 1.0580001 2.3214293e-38
-0.2267143 0.083632387 1.0580001 2.3027753e-38
-0.2915543 0.085161909 1.052 2.284743e-38
-0.28955048 0.085161909 1.052 2.340556e-38
-0.28754666 0.085161909 1.052 2.3415546e-38
-0.27568099 0.084595241 1.0450001 2.3412672e-38
-0.27369049 0.084595241 1.0450001 2.3412672e-38
-0.27092001 0.084352389 1.0420001 2.3412672e-38
-0.26893526 0.084352389 1.0420001 2.3412673e-38
-0.26771906 0.084595241 1.0450001 2.3412313e-38
-0.26572859 0.084595241 1.0450001 2.3412313e-38
-0.2637381 0.084595241 1.0450001 2.3413748e-38
-0.26249906 0.0848381 1.0480001 2.3415543e-38
-0.26050287 0.0848381 1.0480001 2.3416982e-38
-0.25850669 0.0848381 1.0480001 2.3417344e-38
-0.25577623 0.084595241 1.0450001 2.341701e-38
-0.25378573 0.084595241 1.0450001 2.3414166e-38
-0.25179523 0.084595241 1.0450001 2.3413063e-38
-0.24980476 0.084595241 1.0450001 2.3412319e-38
-0.2478143 0.084595241 1.0450001 2.3412316e-38
-0.24582383 0.084595241 1.0450001 2.3412313e-38
-0.24313334 0.084352389 1.0420001 2.3413031e-38
-0.24114858 0.084352389 1.0420001 2.3414108e-38
-0.23916382 0.084352389 1.0420001 2.3414107e-38
-0.23786192 0.084595241 1.0450001 2.3414466e-38
-0.23388097 0.084595241 1.0450001 2.3414468e-38
-0.23009048 0.085404761 1.0550001 2.3401197e-38
-0.22808096 0.085404761 1.0550001 2.3211782e-38
-0.28844956 0.086834297 1.0480001 2.3412724e-38
-0.28645337 0.086834297 1.0480001 2.3414117e-38
-0.28084382 0.086337149 1.0420001 2.3414466e-38
-0.27885905 0.086337149 1.0420001 2.3415183e-38
-0.2768743 0.086337149 1.0420001 2.3413389e-38
-0.27488953 0.086337149 1.0420001 2.3413031e-38
-0.27290478 0.086337149 1.0420001 2.3413031e-38
-0.27092001 0.086337149 1.0420001 2.3413391e-38
-0.26893526 0.086337149 1.0420001 2.3413751e-38
-0.26695049 0.086337149 1.0420001 2.3416978e-38
-0.26496574 0.086337149 1.0420001 2.3416977e-38
-0.26298097 0.086337149 1.0420001 2.3416977e-38
-0.26174763 0.086585723 1.0450001 2.3416618e-38
-0.25975716 0.086585723 1.0450001 2.3416618e-38
-0.25776669 0.086585723 1.0450001 2.3417335e-38
-0.25577623 0.086585723 1.0450001 2.3417338e-38
-0.25305715 0.086337149 1.0420001 2.3417341e-38
-0.25107238 0.086337149 1.0420001 2.3417338e-38
-0.24908763 0.086337149 1.0420001 2.3417335e-38
-0.24710286 0.086337149 1.0420001 2.3417335e-38
-0.24511811 0.086337149 1.0420001 2.3416618e-38
-0.24313334 0.086337149 1.0420001 2.3415902e-38
-0.24045429 0.086088575 1.039 2.3415903e-38
-0.23847523 0.086088575 1.039 2.3415902e-38
-0.23717906 0.086337149 1.0420001 2.3415902e-38
-0.23587145 0.086585723 1.0450001 2.3415903e-38
-0.23320954 0.086337149 1.0420001 2.3413752e-38
-0.23189048 0.086585723 1.0450001 2.3413033e-38
-0.22990002 0.086585723 1.0450001 2.3314023e-38
-0.22725524 0.086337149 1.0420001 2.3307206e-38
-0.22527048 0.086337149 1.0420001 2.3214652e-38
-0.29044572 0.088830486 1.0480001 2.2760565e-38
-0.28844956 0.088830486 1.0480001 2.3414502e-38
-0.28645337 0.088830486 1.0480001 2.3414112e-38
-0.28282857 0.088321909 1.0420001 2.341411e-38
-0.28084382 0.088321909 1.0420001 2.3414824e-38
-0.2780562 0.088067621 1.039 2.3414466e-38
-0.2768743 0.088321909 1.0420001 2.3414107e-38
-0.2740981 0.088067621 1.039 2.3413389e-38
-0.27211905 0.088067621 1.039 2.3413031e-38
-0.27013999 0.088067621 1.039 2.3414108e-38
-0.26816094 0.088067621 1.039 2.3415187e-38
-0.26618189 0.088067621 1.039 2.3416619e-38
-0.26420286 0.088067621 1.039 2.3416618e-38
-0.26222384 0.088067621 1.039 2.3416618e-38
-0.26024479 0.088067621 1.039 2.3416977e-38
-0.25901142 0.088321909 1.0420001 2.3416978e-38
-0.25702667 0.088321909 1.0420001 2.3417338e-38
-0.2550419 0.088321909 1.0420001 2.3417342e-38
-0.25305715 0.088321909 1.0420001 2.3417347e-38
-0.25034952 0.088067621 1.039 2.3417342e-38
-0.24837047 0.088067621 1.039 2.3417337e-38
-0.24639143 0.088067621 1.039 2.3417337e-38
-0.24441238 0.088067621 1.039 2.3417337e-38
-0.24243334 0.088067621 1.039 2.3417358e-38
-0.23976 0.087813333 1.036 2.3417379e-38
-0.23778668 0.087813333 1.036 2.3417362e-38
-0.2364962 0.088067621 1.039 2.3417347e-38
-0.2351943 0.088321909 1.0420001 2.3416653e-38
-0.23320954 0.088321909 1.0420001 2.3413448e-38
-0.23122478 0.088321909 1.0420001 2.3411266e-38
-0.22924002 0.088321909 1.0420001 2.3312587e-38
-0.22725524 0.088321909 1.0420001 2.330577e-38
-0.22527048 0.088321909 1.0420001 2.3305411e-38
-0.28679812 0.090306669 1.0420001 2.341664e-38
-0.28481334 0.090306669 1.0420001 2.3414468e-38
-0.28282857 0.090306669 1.0420001 2.3414108e-38
-0.28003526 0.090046667 1.039 2.3414824e-38
-0.2780562 0.090046667 1.039 2.3414466e-38
-0.27607715 0.090046667 1.039 2.3414107e-38
-0.2740981 0.090046667 1.039 2.3414107e-38
-0.27211905 0.090046667 1.039 2.3414467e-38
-0.27013999 0.090046667 1.039 2.3415186e-38
-0.26738667 0.089786664 1.036 2.3415906e-38
-0.26541331 0.089786664 1.036 2.3416621e-38
-0.26343998 0.089786664 1.036 2.3416618e-38
-0.26222384 0.090046667 1.039 2.3416259e-38
-0.26024479 0.090046667 1.039 2.3416977e-38
-0.25826573 0.090046667 1.039 2.3417338e-38
-0.25628668 0.090046667 1.039 2.3417341e-38
-0.25430763 0.090046667 1.039 2.3417347e-38
-0.25232857 0.090046667 1.039 2.3417354e-38
-0.24962667 0.089786664 1.036 2.3417347e-38
-0.24765334 0.089786664 1.036 2.341734e-38
-0.24567999 0.089786664 1.036 2.341734e-38
-0.23778668 0.089786664 1.036 2.3417389e-38
-0.23581333 0.089786664 1.036 2.3417358e-38
-0.23451716 0.090046667 1.039 2.3417403e-38
-0.2325381 0.090046667 1.039 2.3410274e-38
-0.23055905 0.090046667 1.039 2.3409499e-38
-0.22858 0.090046667 1.039 2.3307922e-38
-0.22660096 0.090046667 1.039 2.3212858e-38
-0.22527048 0.090306669 1.0420001 2.3306128e-38
-0.22328572 0.090306669 1.0420001 2.3398345e-38
-0.28597239 0.09202572 1.039 2.3416994e-38
-0.28399336 0.09202572 1.039 2.341483e-38
-0.28201431 0.09202572 1.039 2.3414827e-38
-0.27922669 0.091760002 1.036 2.3414826e-38
-0.27725333 0.091760002 1.036 2.3414107e-38
-0.27607715 0.09202572 1.039 2.3413748e-38
-0.27330667 0.091760002 1.036 2.3415542e-38
-0.27133334 0.091760002 1.036 2.3417337e-38
-0.26936001 0.091760002 1.036 2.3417338e-38
-0.26661238 0.091494285 1.033 2.3417338e-38
-0.26464474 0.091494285 1.033 2.3416982e-38
-0.26267713 0.091494285 1.033 2.3416984e-38
-0.26146668 0.091760002 1.036 2.3416624e-38
-0.25949335 0.091760002 1.036 2.341698e-38
-0.25751999 0.091760002 1.036 2.3417358e-38
-0.25554666 0.091760002 1.036 2.3417376e-38
-0.25357336 0.091760002 1.036 2.3417363e-38
-0.2516 0.091760002 1.036 2.3415915e-38
-0.24962667 0.091760002 1.036 2.3417345e-38
-0.24765334 0.091760002 1.036 2.3417341e-38
-0.24496858 0.091494285 1.033 2.3417345e-38
-0.24229525 0.091228582 1.0300001 2.3417348e-38
-0.24033335 0.091228582 1.0300001 2.3417366e-38
-0.23744573 0.090874285 1.026 2.3417383e-38
-0.23549142 0.090874285 1.026 2.341738e-38
-0.23451716 0.09202572 1.039 2.3414156e-38
-0.2325381 0.09202572 1.039 2.3407347e-38
-0.23055905 0.09202572 1.039 2.3405175e-38
-0.22858 0.09202572 1.039 2.3211799e-38
-0.22660096 0.09202572 1.039 2.3122107e-38
-0.22527048 0.09229143 1.0420001 2.321501e-38
-0.22328572 0.09229143 1.0420001 2.3398334e-38
-0.22130096 0.09229143 1.0420001 2.3397629e-38
-0.28795141 0.094004765 1.039 2.3413405e-38
-0.28119999 0.093733333 1.036 2.3417341e-38
-0.27054763 0.093461908 1.033 2.3417338e-38
-0.26857999 0.093461908 1.033 2.3417337e-38
-0.26583812 0.093190484 1.0300001 2.3417337e-38
-0.26387623 0.093190484 1.0300001 2.3417344e-38
-0.26191428 0.093190484 1.0300001 2.3416992e-38
-0.26070952 0.093461908 1.033 2.341627e-38
-0.25874189 0.093461908 1.033 2.3416984e-38
-0.25677428 0.093461908 1.033 2.3417377e-38
-0.25480667 0.093461908 1.033 2.3417413e-38
-0.25357336 0.093733333 1.036 2.3417379e-38
-0.25087142 0.093461908 1.033 2.3417347e-38
-0.24818097 0.093190484 1.0300001 2.3417345e-38
-0.24693617 0.093461908 1.033 2.3417344e-38
-0.24425717 0.093190484 1.0300001 2.3417351e-38
-0.24229525 0.093190484 1.0300001 2.3417358e-38
-0.24033335 0.093190484 1.0300001 2.3417352e-38
-0.23744573 0.092828572 1.026 2.3417348e-38
-0.23549142 0.092828572 1.026 2.3417373e-38
-0.23383999 0.093733333 1.036 2.3410911e-38
-0.23186667 0.093733333 1.036 2.3311868e-38
-0.23055905 0.094004765 1.039 2.3309015e-38
-0.22858 0.094004765 1.039 2.3304011e-38
-0.22725524 0.094276197 1.0420001 2.3215027e-38
-0.22527048 0.094276197 1.0420001 2.3306487e-38
-0.22264287 0.094004765 1.039 2.3398323e-38
-0.22066382 0.094004765 1.039 2.3397607e-38
-0.28349525 0.095152393 1.0300001 2.3417351e-38
-0.28153333 0.095152393 1.0300001 2.3417344e-38
-0.27653143 0.094782859 1.026 2.3417365e-38
-0.27457714 0.094782859 1.026 2.3417376e-38
-0.27262285 0.094782859 1.026 2.3417387e-38
-0.27066857 0.094782859 1.026 2.3417365e-38
-0.26675999 0.094782859 1.026 2.3417338e-38
-0.26480573 0.094782859 1.026 2.3417335e-38
-0.26285145 0.094782859 1.026 2.341734e-38
-0.26191428 0.095152393 1.0300001 2.3417344e-38
-0.2599524 0.095152393 1.0300001 2.3417341e-38
-0.25799048 0.095152393 1.0300001 2.3417338e-38
-0.25602859 0.095152393 1.0300001 2.3417356e-38
-0.25406668 0.095152393 1.0300001 2.3417016e-38
-0.24621907 0.095152393 1.0300001 2.3417344e-38
-0.23940001 0.094782859 1.026 2.3417351e-38
-0.23675144 0.094505712 1.023 2.3417342e-38
-0.23480286 0.094505712 1.023 2.3415561e-38
-0.23353714 0.094782859 1.026 2.341378e-38
-0.23186667 0.095706671 1.036 2.330864e-38
-0.23055905 0.095983811 1.039 2.3306496e-38
-0.22858 0.095983811 1.039 2.330471e-38
-0.22725524 0.096260957 1.0420001 2.3398331e-38
-0.22527048 0.096260957 1.0420001 2.3399399e-38
-0.22328572 0.096260957 1.0420001 2.3398334e-38
-0.22066382 0.095983811 1.039 2.3397629e-38
-0.28434858 0.096737146 1.026 2.3415574e-38
-0.28349525 0.097114295 1.0300001 2.3417356e-38
-0.27572286 0.096454285 1.023 2.3417392e-38
-0.27457714 0.096737146 1.026 2.3417415e-38
-0.27262285 0.096737146 1.026 2.3417441e-38
-0.27066857 0.096737146 1.026 2.3417393e-38
-0.26871428 0.096737146 1.026 2.3417347e-38
-0.26675999 0.096737146 1.026 2.3417341e-38
-0.26480573 0.096737146 1.026 2.3417335e-38
-0.26285145 0.096737146 1.026 2.3417335e-38
-0.26089716 0.096737146 1.026 2.3417337e-38
-0.25894287 0.096737146 1.026 2.3417335e-38
-0.25623715 0.096454285 1.023 2.3417335e-38
-0.25428855 0.096454285 1.023 2.3417337e-38
-0.25233999 0.096454285 1.023 2.3417338e-38
-0.25039142 0.096454285 1.023 2.341734e-38
-0.24188574 0.096171439 1.0200001 2.3417352e-38
-0.23994288 0.096171439 1.0200001 2.3417361e-38
-0.23800002 0.096171439 1.0200001 2.3417349e-38
-0.23605718 0.096171439 1.0200001 2.3414827e-38
-0.2341143 0.096171439 1.0200001 2.3412315e-38
-0.23285428 0.096454285 1.023 2.3407292e-38
-0.23158285 0.096737146 1.026 2.3402627e-38
-0.22792001 0.097680002 1.036 2.3305411e-38
-0.22660096 0.097962856 1.039 2.3397964e-38
-0.22462191 0.097962856 1.039 2.3398323e-38
-0.22264287 0.097962856 1.039 2.3398704e-38
-0.22066382 0.097962856 1.039 2.3306533e-38
-0.21868476 0.097962856 1.039 2.3306224e-38
-0.21670571 0.097962856 1.039 2.3030049e-38
-0.28741428 0.098402858 1.023 2.2657707e-38
-0.28546572 0.098402858 1.023 2.3404153e-38
-0.28351712 0.098402858 1.023 2.3413764e-38
-0.28239429 0.098691426 1.026 2.3415556e-38
-0.27880001 0.098114297 1.0200001 2.3417349e-38
-0.26403144 0.098402858 1.023 2.3417344e-38
-0.26208287 0.098402858 1.023 2.3417358e-38
-0.26013428 0.098402858 1.023 2.341737e-38
-0.25818571 0.098402858 1.023 2.3417375e-38
-0.25623715 0.098402858 1.023 2.341738e-38
-0.25354287 0.098114297 1.0200001 2.3417366e-38
-0.25160003 0.098114297 1.0200001 2.3417354e-38
-0.24965715 0.098114297 1.0200001 2.3417348e-38
-0.2450486 0.097825721 1.0170001 2.3417342e-38
-0.24239428 0.097537152 1.0140001 2.3417341e-38
-0.2411743 0.097825721 1.0170001 2.3417345e-38
-0.23923716 0.097825721 1.0170001 2.3417348e-38
-0.23800002 0.098114297 1.0200001 2.3413046e-38
-0.23605718 0.098114297 1.0200001 2.3408743e-38
-0.2341143 0.098114297 1.0200001 2.3405147e-38
-0.23285428 0.098402858 1.023 2.3401551e-38
-0.23158285 0.098691426 1.026 2.3400116e-38
-0.22962856 0.098691426 1.026 2.3394377e-38
-0.22922762 0.099364758 1.033 2.3395812e-38
-0.22792001 0.099653333 1.036 2.3397964e-38
-0.22594666 0.099653333 1.036 2.3397964e-38
-0.22397333 0.099653333 1.036 2.3398323e-38
-0.22264287 0.099941909 1.039 2.3398701e-38
-0.22066382 0.099941909 1.039 2.3307244e-38
-0.21868476 0.099941909 1.039 2.3214734e-38
-0.21670571 0.099941909 1.039 2.3119714e-38
-0.28741428 0.10035143 1.023 2.219925e-38
-0.28546572 0.10035143 1.023 2.2479693e-38
-0.28351712 0.10035143 1.023 2.2945244e-38
-0.28156856 0.10035143 1.023 2.3410887e-38
-0.27880001 0.10005715 1.0200001 2.341269e-38
-0.27685717 0.10005715 1.0200001 2.3414488e-38
-0.27168 0.09888 1.008 2.3415929e-38
-0.26976001 0.09888 1.008 2.3417389e-38
-0.26325715 0.10005715 1.0200001 2.341556e-38
-0.2613143 0.10005715 1.0200001 2.341415e-38
-0.26013428 0.10035143 1.023 2.3415612e-38
-0.25742859 0.10005715 1.0200001 2.3417415e-38
-0.25548574 0.10005715 1.0200001 2.3417425e-38
-0.25279716 0.099762864 1.0170001 2.3417397e-38
-0.25086001 0.099762864 1.0170001 2.3417012e-38
-0.24892287 0.099762864 1.0170001 2.341664e-38
-0.24552859 0.099174291 1.011 2.3416988e-38
-0.24360286 0.099174291 1.011 2.3417342e-38
-0.24239428 0.099468581 1.0140001 2.3414829e-38
-0.24046285 0.099468581 1.0140001 2.3412316e-38
-0.23853144 0.099468581 1.0140001 2.3408369e-38
-0.23730002 0.099762864 1.0170001 2.3404438e-38
-0.23536287 0.099762864 1.0170001 2.3402301e-38
-0.23342572 0.099762864 1.0170001 2.340049e-38
-0.23217146 0.10005715 1.0200001 2.3399758e-38
-0.23090571 0.10035143 1.023 2.3397964e-38
-0.22962856 0.10064571 1.026 2.3397605e-38
-0.22989333 0.10162666 1.036 2.3397246e-38
-0.22792001 0.10162666 1.036 2.3397605e-38
-0.22660096 0.10192095 1.039 2.3398323e-38
-0.22527048 0.10221524 1.0420001 2.3398683e-38
-0.22328572 0.10221524 1.0420001 2.3399416e-38
-0.22130096 0.10221524 1.0420001 2.3307237e-38
-0.28741428 0.1023 1.023 2.1832984e-38
-0.28462857 0.10200001 1.0200001 2.1647816e-38
-0.28268576 0.10200001 1.0200001 2.2472839e-38
-0.28074288 0.10200001 1.0200001 2.3396556e-38
-0.27880001 0.10200001 1.0200001 2.3401918e-38
-0.27604288 0.10170001 1.0170001 2.3404432e-38
-0.27168 0.1008 1.008 2.3407305e-38
-0.26976001 0.1008 1.008 2.3407318e-38
-0.26784 0.1008 1.008 2.3407689e-38
-0.26592001 0.1008 1.008 2.3407685e-38
-0.264 0.1008 1.008 2.3407682e-38
-0.26286003 0.10110001 1.011 2.3406593e-38
-0.25398287 0.10140001 1.0140001 2.3405901e-38
-0.25205144 0.10140001 1.0140001 2.3407322e-38
-0.25012001 0.10140001 1.0140001 2.3408743e-38
-0.24818859 0.10140001 1.0140001 2.3406585e-38
-0.24552859 0.10110001 1.011 2.3404785e-38
-0.24288 0.1008 1.008 2.3404065e-38
-0.24167715 0.10110001 1.011 2.3403705e-38
-0.24046285 0.10140001 1.0140001 2.3404422e-38
-0.23853144 0.10140001 1.0140001 2.3405497e-38
-0.23660001 0.10140001 1.0140001 2.3404071e-38
-0.23536287 0.10170001 1.0170001 2.3400849e-38
-0.23342572 0.10170001 1.0170001 2.3400123e-38
-0.23217146 0.10200001 1.0200001 2.339904e-38
-0.23090571 0.1023 1.023 2.3397605e-38
-0.22962856 0.1026 1.026 2.3396529e-38
-0.22922762 0.1033 1.033 2.3396888e-38
-0.22792001 0.1036 1.036 2.3397605e-38
-0.22660096 0.1039 1.039 2.339904e-38
-0.22392859 0.1045 1.0450001 2.3398697e-38
-0.2219381 0.1045 1.0450001 2.3397637e-38
-0.21994764 0.1045 1.0450001 2.3397307e-38
-0.28741428 0.10424857 1.023 2.2291085e-38
-0.28462857 0.10394286 1.0200001 2.2474e-38
-0.28268576 0.10394286 1.0200001 2.293565e-38
-0.28074288 0.10394286 1.0200001 2.3305816e-38
-0.27798003 0.10363715 1.0170001 2.330577e-38
-0.27604288 0.10363715 1.0170001 2.3397964e-38
-0.27168 0.10272 1.008 2.3398681e-38
-0.26976001 0.10272 1.008 2.3399758e-38
-0.26784 0.10272 1.008 2.330864e-38
-0.26592001 0.10272 1.008 2.3309716e-38
-0.264 0.10272 1.008 2.3311151e-38
-0.26207998 0.10272 1.008 2.3404421e-38
-0.26016 0.10272 1.008 2.3404062e-38
-0.25900859 0.10302571 1.011 2.3403704e-38
-0.25708288 0.10302571 1.011 2.3403345e-38
-0.25439999 0.10272 1.008 2.3403345e-38
-0.25248 0.10272 1.008 2.3402986e-38
-0.25205144 0.10333144 1.0140001 2.3402627e-38
-0.25012001 0.10333144 1.0140001 2.3402269e-38
-0.24745429 0.10302571 1.011 2.3402269e-38
-0.2448 0.10272 1.008 2.3402627e-38
-0.24288 0.10272 1.008 2.3402986e-38
-0.24096 0.10272 1.008 2.3403345e-38
-0.23975144 0.10302571 1.011 2.3403345e-38
-0.23853144 0.10333144 1.0140001 2.3403345e-38
-0.23660001 0.10333144 1.0140001 2.3403704e-38
-0.23466858 0.10333144 1.0140001 2.3400834e-38
-0.23342572 0.10363715 1.0170001 2.3400116e-38
-0.23217146 0.10394286 1.0200001 2.3398681e-38
-0.23090571 0.10424857 1.023 2.3397246e-38
-0.22962856 0.10455429 1.026 2.3398323e-38
-0.22922762 0.10526761 1.033 2.3400475e-38
-0.22792001 0.10557333 1.036 2.3399042e-38
-0.22660096 0.10587905 1.039 2.3400475e-38
-0.22462191 0.10587905 1.039 2.3398681e-38
-0.2219381 0.10649049 1.0450001 2.3397637e-38
-0.28741428 0.10619715 1.023 2.2754563e-38
-0.28462857 0.10588572 1.0200001 2.3397352e-38
-0.28268576 0.10588572 1.0200001 2.3305816e-38
-0.28074288 0.10588572 1.0200001 2.3305075e-38
-0.27798003 0.10557429 1.0170001 2.3304335e-38
-0.27168 0.10464 1.008 2.3396888e-38
-0.26976001 0.10464 1.008 2.3397605e-38
-0.26730859 0.10443239 1.006 2.3306487e-38
-0.26539239 0.10443239 1.006 2.3306128e-38
-0.26347622 0.10443239 1.006 2.330577e-38
-0.26155999 0.10443239 1.006 2.3404421e-38
-0.25964382 0.10443239 1.006 2.3401192e-38
-0.25824001 0.10464 1.008 2.3399399e-38
-0.25632 0.10464 1.008 2.3397964e-38
-0.25439999 0.10464 1.008 2.3398681e-38
-0.25248 0.10464 1.008 2.3399399e-38
-0.25056002 0.10464 1.008 2.3400475e-38
-0.24863999 0.10464 1.008 2.3401551e-38
-0.24672 0.10464 1.008 2.340191e-38
-0.2448 0.10464 1.008 2.3402986e-38
-0.2423981 0.10443239 1.006 2.3402627e-38
-0.24096 0.10464 1.008 2.3404062e-38
-0.23975144 0.10495143 1.011 2.3403704e-38
-0.23853144 0.10526286 1.0140001 2.3403704e-38
-0.23660001 0.10526286 1.0140001 2.3403345e-38
-0.23536287 0.10557429 1.0170001 2.3400834e-38
-0.23342572 0.10557429 1.0170001 2.3399758e-38
-0.23148859 0.10557429 1.0170001 2.3398683e-38
-0.23090571 0.10619715 1.023 2.3399042e-38
-0.22922762 0.10723524 1.033 2.33994e-38
-0.22725999 0.10723524 1.033 2.3397607e-38
-0.22660096 0.1078581 1.039 2.3397605e-38
-0.22527048 0.10816953 1.0420001 2.3397605e-38
-0.22328572 0.10816953 1.0420001 2.3397615e-38
-0.28741428 0.10814571 1.023 2.2753843e-38
-0.28462857 0.10782858 1.0200001 2.3399839e-38
-0.2818543 0.10751144 1.0170001 2.3306128e-38
-0.28074288 0.10782858 1.0200001 2.3304693e-38
-0.27798003 0.10751144 1.0170001 2.3305052e-38
-0.27168 0.10656 1.008 2.3397246e-38
-0.26922476 0.10634858 1.006 2.3397605e-38
-0.26730859 0.10634858 1.006 2.3305052e-38
-0.26539239 0.10634858 1.006 2.3304335e-38
-0.26347622 0.10634858 1.006 2.3306487e-38
-0.26155999 0.10634858 1.006 2.3404421e-38
-0.25964382 0.10634858 1.006 2.3400116e-38
-0.25772762 0.10634858 1.006 2.3399399e-38
-0.25581145 0.10634858 1.006 2.3399399e-38
-0.25389522 0.10634858 1.006 2.3399399e-38
-0.25197905 0.10634858 1.006 2.3399399e-38
-0.25006285 0.10634858 1.006 2.3399758e-38
-0.24814668 0.10634858 1.006 2.3308281e-38
-0.2462305 0.10634858 1.006 2.3308998e-38
-0.24431428 0.10634858 1.006 2.3309716e-38
-0.2423981 0.10634858 1.006 2.3402269e-38
-0.24096 0.10656 1.008 2.3403345e-38
-0.23975144 0.10687714 1.011 2.3403704e-38
-0.23853144 0.10719429 1.0140001 2.3403345e-38
-0.23660001 0.10719429 1.0140001 2.3403345e-38
-0.23536287 0.10751144 1.0170001 2.340478e-38
-0.23342572 0.10751144 1.0170001 2.3406216e-38
-0.23148859 0.10751144 1.0170001 2.340586e-38
-0.23052382 0.10888572 1.0300001 2.3399403e-38
-0.22922762 0.10920285 1.033 2.3398684e-38
-0.22725999 0.10920285 1.033 2.3397965e-38
-0.22725524 0.11015429 1.0420001 2.3396888e-38
-0.22527048 0.11015429 1.0420001 2.3397605e-38
-0.22328572 0.11015429 1.0420001 2.3397249e-38
-0.28462857 0.10977144 1.0200001 2.3399482e-38
-0.28268576 0.10977144 1.0200001 2.3402274e-38
-0.28074288 0.10977144 1.0200001 2.3403352e-38
-0.27798003 0.10944857 1.0170001 2.340479e-38
-0.27522859 0.10912572 1.0140001 2.3401555e-38
-0.27168 0.10848 1.008 2.3398323e-38
-0.26976001 0.10848 1.008 2.3397246e-38
-0.26784 0.10848 1.008 2.3396529e-38
-0.26592001 0.10848 1.008 2.3397605e-38
-0.264 0.10848 1.008 2.339904e-38
-0.26155999 0.10826476 1.006 2.339904e-38
-0.25964382 0.10826476 1.006 2.3399399e-38
-0.25772762 0.10826476 1.006 2.3399399e-38
-0.25581145 0.10826476 1.006 2.3399399e-38
-0.25389522 0.10826476 1.006 2.3399399e-38
-0.25197905 0.10826476 1.006 2.3399399e-38
-0.25006285 0.10826476 1.006 2.3399758e-38
-0.24814668 0.10826476 1.006 2.3308281e-38
-0.2462305 0.10826476 1.006 2.3217163e-38
-0.24431428 0.10826476 1.006 2.3303619e-38
-0.24288 0.10848 1.008 2.3399046e-38
-0.24096 0.10848 1.008 2.3402997e-38
-0.23975144 0.10880286 1.011 2.3404791e-38
-0.23853144 0.10912572 1.0140001 2.3406585e-38
-0.23660001 0.10912572 1.0140001 2.3405862e-38
-0.23536287 0.10944857 1.0170001 2.3405499e-38
-0.23342572 0.10944857 1.0170001 2.3405857e-38
-0.23148859 0.10944857 1.0170001 2.3402988e-38
-0.23022859 0.10977144 1.0200001 2.3401194e-38
-0.23052382 0.11084762 1.0300001 2.33994e-38
-0.22856192 0.11084762 1.0300001 2.3399042e-38
-0.22725524 0.11213905 1.0420001 2.3397964e-38
-0.22527048 0.11213905 1.0420001 2.3397605e-38
-0.22328572 0.11213905 1.0420001 2.3396896e-38
-0.28462857 0.1117143 1.0200001 2.2939948e-38
-0.28268576 0.1117143 1.0200001 2.2942385e-38
-0.28074288 0.1117143 1.0200001 2.29449e-38
-0.27798003 0.11138573 1.0170001 2.3128575e-38
-0.27248856 0.11072858 1.011 2.3399042e-38
-0.26976001 0.1104 1.008 2.3400475e-38
-0.26784 0.1104 1.008 2.3401192e-38
-0.26592001 0.1104 1.008 2.3402269e-38
-0.264 0.1104 1.008 2.3400834e-38
-0.26207998 0.1104 1.008 2.3399399e-38
-0.26016 0.1104 1.008 2.3399758e-38
-0.25824001 0.1104 1.008 2.3400475e-38
-0.25581145 0.11018095 1.006 2.3400116e-38
-0.25389522 0.11018095 1.006 2.3400116e-38
-0.25197905 0.11018095 1.006 2.3400116e-38
-0.25006285 0.11018095 1.006 2.3400116e-38
-0.24814668 0.11018095 1.006 2.330864e-38
-0.2462305 0.11018095 1.006 2.3309358e-38
-0.2448 0.1104 1.008 2.3316893e-38
-0.24288 0.1104 1.008 2.3416631e-38
-0.24096 0.1104 1.008 2.3405161e-38
-0.23975144 0.11072858 1.011 2.3410901e-38
-0.23853144 0.11105715 1.0140001 2.3409824e-38
-0.23660001 0.11105715 1.0140001 2.3408738e-38
-0.23466858 0.11105715 1.0140001 2.3407294e-38
-0.23342572 0.11138573 1.0170001 2.3405857e-38
-0.23148859 0.11138573 1.0170001 2.340191e-38
-0.23022859 0.1117143 1.0200001 2.339904e-38
-0.22989333 0.11346667 1.036 2.3399759e-38
-0.22858 0.11379524 1.039 2.3398684e-38
-0.22725524 0.11412381 1.0420001 2.3397965e-38
-0.22591905 0.11445239 1.0450001 2.3397246e-38
-0.22392859 0.11445239 1.0450001 2.3396543e-38
-0.28462857 0.11365715 1.0200001 2.2476488e-38
-0.28268576 0.11365715 1.0200001 2.247678e-38
-0.28074288 0.11365715 1.0200001 2.25686e-38
-0.27798003 0.11332286 1.0170001 2.2935926e-38
-0.27522859 0.11298858 1.0140001 2.3397251e-38
-0.27329713 0.11298858 1.0140001 2.3399758e-38
-0.27056286 0.11265428 1.011 2.3399758e-38
-0.26863715 0.11265428 1.011 2.3402269e-38
-0.26671141 0.11265428 1.011 2.3401192e-38
-0.26478574 0.11265428 1.011 2.3404781e-38
-0.26207998 0.11232001 1.008 2.3404064e-38
-0.26016 0.11232001 1.008 2.3403704e-38
-0.25824001 0.11232001 1.008 2.3404064e-38
-0.25632 0.11232001 1.008 2.3404783e-38
-0.25439999 0.11232001 1.008 2.3404781e-38
-0.25197905 0.11209714 1.006 2.3405139e-38
-0.25006285 0.11209714 1.006 2.3405499e-38
-0.24814668 0.11209714 1.006 2.3406216e-38
-0.2462305 0.11209714 1.006 2.3403705e-38
-0.2448 0.11232001 1.008 2.3411956e-38
-0.24288 0.11232001 1.008 2.3409808e-38
-0.24096 0.11232001 1.008 2.3407661e-38
-0.23975144 0.11265428 1.011 2.3405867e-38
-0.23853144 0.11298858 1.0140001 2.3404074e-38
-0.23660001 0.11298858 1.0140001 2.3402633e-38
-0.23466858 0.11298858 1.0140001 2.3401553e-38
-0.23273715 0.11298858 1.0140001 2.3401192e-38
-0.23148859 0.11332286 1.0170001 2.3401192e-38
-0.23022859 0.11365715 1.0200001 2.3400116e-38
-0.22989333 0.11544 1.036 2.3399399e-38
-0.22858 0.11577429 1.039 2.33994e-38
-0.22725524 0.11610858 1.0420001 2.3396891e-38
-0.22591905 0.11644286 1.0450001 2.3397251e-38
-0.22392859 0.11644286 1.0450001 2.3396909e-38
-0.28379145 0.11526 1.0170001 2.2385034e-38
-0.2818543 0.11526 1.0170001 2.2476811e-38
-0.27991715 0.11526 1.0170001 2.2659728e-38
-0.27798003 0.11526 1.0170001 2.3027393e-38
-0.27522859 0.11492001 1.0140001 2.3395453e-38
-0.27329713 0.11492001 1.0140001 2.3397964e-38
-0.27136573 0.11492001 1.0140001 2.3399399e-38
-0.26863715 0.11458001 1.011 2.3307922e-38
-0.26671141 0.11458001 1.011 2.3216805e-38
-0.26478574 0.11458001 1.011 2.3310079e-38
-0.26207998 0.11424001 1.008 2.3403706e-38
-0.26093429 0.11458001 1.011 2.3403346e-38
-0.25824001 0.11424001 1.008 2.3402989e-38
-0.25632 0.11424001 1.008 2.3403709e-38
-0.25439999 0.11424001 1.008 2.3404424e-38
-0.25248 0.11424001 1.008 2.3404422e-38
-0.25056002 0.11424001 1.008 2.3404424e-38
-0.24863999 0.11424001 1.008 2.3405143e-38
-0.24672 0.11424001 1.008 2.3406216e-38
-0.2448 0.11424001 1.008 2.3402627e-38
-0.24360286 0.11458001 1.011 2.339904e-38
-0.24167715 0.11458001 1.011 2.3400475e-38
-0.23975144 0.11458001 1.011 2.3402269e-38
-0.23853144 0.11492001 1.0140001 2.3402269e-38
-0.23660001 0.11492001 1.0140001 2.3402627e-38
-0.23466858 0.11492001 1.0140001 2.3402627e-38
-0.23342572 0.11526 1.0170001 2.3402986e-38
-0.23148859 0.11526 1.0170001 2.3402629e-38
-0.23052382 0.11673334 1.0300001 2.3399758e-38
-0.22922762 0.11707333 1.033 2.339904e-38
-0.22792001 0.11741333 1.036 2.3398681e-38
-0.22725524 0.11809334 1.0420001 2.3396174e-38
-0.22591905 0.11843334 1.0450001 2.3397256e-38
-0.22392859 0.11843334 1.0450001 2.3398351e-38
-0.28379145 0.11719715 1.0170001 2.238576e-38
-0.28102285 0.11685143 1.0140001 2.256939e-38
-0.27909145 0.11685143 1.0140001 2.275373e-38
-0.27715999 0.11685143 1.0140001 2.3029904e-38
-0.27522859 0.11685143 1.0140001 2.3396888e-38
-0.27329713 0.11685143 1.0140001 2.3396529e-38
-0.27136573 0.11685143 1.0140001 2.3396529e-38
-0.26863715 0.11650571 1.011 2.3212858e-38
-0.26671141 0.11650571 1.011 2.3125329e-38
-0.26478574 0.11650571 1.011 2.3215731e-38
-0.26286003 0.11650571 1.011 2.3402988e-38
-0.26093429 0.11650571 1.011 2.340191e-38
-0.25824001 0.11616 1.008 2.340227e-38
-0.25632 0.11616 1.008 2.3398684e-38
-0.25439999 0.11616 1.008 2.3398324e-38
-0.25248 0.11616 1.008 2.3398323e-38
-0.25056002 0.11616 1.008 2.3403705e-38
-0.24863999 0.11616 1.008 2.3400835e-38
-0.24672 0.11616 1.008 2.340191e-38
-0.2448 0.11616 1.008 2.3403345e-38
-0.24288 0.11616 1.008 2.3402986e-38
-0.24167715 0.11650571 1.011 2.3402627e-38
-0.23975144 0.11650571 1.011 2.3403345e-38
-0.23782572 0.11650571 1.011 2.3405856e-38
-0.23660001 0.11685143 1.0140001 2.340478e-38
-0.23466858 0.11685143 1.0140001 2.3404062e-38
-0.23342572 0.11719715 1.0170001 2.3403345e-38
-0.23148859 0.11719715 1.0170001 2.3403345e-38
-0.22955145 0.11719715 1.0170001 2.3401551e-38
-0.22962856 0.11823429 1.026 2.3400116e-38
-0.22856192 0.11869525 1.0300001 2.3399399e-38
-0.22792001 0.11938667 1.036 2.3398324e-38
-0.22725524 0.1200781 1.0420001 2.3396891e-38
-0.22591905 0.12042382 1.0450001 2.3394382e-38
-0.22392859 0.12042382 1.0450001 2.3397978e-38
-0.2818543 0.11913429 1.0170001 2.2569059e-38
-0.27909145 0.11878286 1.0140001 2.2753744e-38
-0.27715999 0.11878286 1.0140001 2.3029546e-38
-0.27522859 0.11878286 1.0140001 2.3397246e-38
-0.27329713 0.11878286 1.0140001 2.3397246e-38
-0.27136573 0.11878286 1.0140001 2.3400475e-38
-0.2694343 0.11878286 1.0140001 2.3309e-38
-0.26750287 0.11878286 1.0140001 2.3217882e-38
-0.26557145 0.11878286 1.0140001 2.3310076e-38
-0.26286003 0.11843143 1.011 2.3402269e-38
-0.26093429 0.11843143 1.011 2.340191e-38
-0.25900859 0.11843143 1.011 2.3401551e-38
-0.25708288 0.11843143 1.011 2.3402269e-38
-0.25515714 0.11843143 1.011 2.3402986e-38
-0.25248 0.11808 1.008 2.3402986e-38
-0.25056002 0.11808 1.008 2.3403345e-38
-0.24863999 0.11808 1.008 2.3402627e-38
-0.24745429 0.11843143 1.011 2.3402269e-38
-0.24552859 0.11843143 1.011 2.3403345e-38
-0.24360286 0.11843143 1.011 2.3403704e-38
-0.24239428 0.11878286 1.0140001 2.3404062e-38
-0.24046285 0.11878286 1.0140001 2.340478e-38
-0.23853144 0.11878286 1.0140001 2.3405857e-38
-0.23660001 0.11878286 1.0140001 2.3407291e-38
-0.23536287 0.11913429 1.0170001 2.3404421e-38
-0.23342572 0.11913429 1.0170001 2.3403704e-38
-0.23217146 0.11948573 1.0200001 2.3402627e-38
-0.23158285 0.12018858 1.026 2.3400834e-38
-0.22962856 0.12018858 1.026 2.3400116e-38
-0.22856192 0.12065715 1.0300001 2.3400118e-38
-0.22792001 0.12136 1.036 2.3397608e-38
-0.22660096 0.12171143 1.039 2.3397967e-38
-0.22462191 0.12171143 1.039 2.3397608e-38
-0.2818543 0.12107144 1.0170001 2.2569069e-38
-0.27991715 0.12107144 1.0170001 2.275339e-38
-0.27798003 0.12107144 1.0170001 2.3029549e-38
-0.27522859 0.12071429 1.0140001 2.3397607e-38
-0.27329713 0.12071429 1.0140001 2.3398323e-38
-0.27136573 0.12071429 1.0140001 2.3400116e-38
-0.2694343 0.12071429 1.0140001 2.3401551e-38
-0.26750287 0.12071429 1.0140001 2.3401551e-38
-0.26557145 0.12071429 1.0140001 2.3401911e-38
-0.26286003 0.12035715 1.011 2.340191e-38
-0.26093429 0.12035715 1.011 2.3402269e-38
-0.25900859 0.12035715 1.011 2.3402269e-38
-0.25708288 0.12035715 1.011 2.3402627e-38
-0.25515714 0.12035715 1.011 2.3402627e-38
-0.25323144 0.12035715 1.011 2.3403346e-38
-0.2513057 0.12035715 1.011 2.3403345e-38
-0.24937999 0.12035715 1.011 2.3403345e-38
-0.24818859 0.12071429 1.0140001 2.3402627e-38
-0.24625714 0.12071429 1.0140001 2.3403345e-38
-0.24432573 0.12071429 1.0140001 2.3403704e-38
-0.24239428 0.12071429 1.0140001 2.340478e-38
-0.24046285 0.12071429 1.0140001 2.3404421e-38
-0.23853144 0.12071429 1.0140001 2.3405856e-38
-0.23730002 0.12107144 1.0170001 2.3405497e-38
-0.23536287 0.12107144 1.0170001 2.340514e-38
-0.23342572 0.12107144 1.0170001 2.3404421e-38
-0.23217146 0.12142859 1.0200001 2.3402269e-38
-0.23158285 0.12214286 1.026 2.3401192e-38
-0.23052382 0.12261906 1.0300001 2.3400116e-38
-0.22856192 0.12261906 1.0300001 2.3399399e-38
-0.22594666 0.12333333 1.036 2.3397607e-38
-0.22397333 0.12333333 1.036 2.3398325e-38
-0.27991715 0.12300858 1.0170001 2.2569726e-38
-0.27798003 0.12300858 1.0170001 2.2937357e-38
-0.27604288 0.12300858 1.0170001 2.3397967e-38
-0.27410576 0.12300858 1.0170001 2.3399042e-38
-0.27136573 0.12264571 1.0140001 2.3400116e-38
-0.2694343 0.12264571 1.0140001 2.3400834e-38
-0.26750287 0.12264571 1.0140001 2.3401192e-38
-0.26557145 0.12264571 1.0140001 2.3401553e-38
-0.26364002 0.12264571 1.0140001 2.340191e-38
-0.26170859 0.12264571 1.0140001 2.340191e-38
-0.25977716 0.12264571 1.0140001 2.3402269e-38
-0.25784573 0.12264571 1.0140001 2.3402627e-38
-0.2559143 0.12264571 1.0140001 2.3402629e-38
-0.25398287 0.12264571 1.0140001 2.3402632e-38
-0.25205144 0.12264571 1.0140001 2.3402988e-38
-0.25012001 0.12264571 1.0140001 2.3403345e-38
-0.24818859 0.12264571 1.0140001 2.3402269e-38
-0.24625714 0.12264571 1.0140001 2.3402627e-38
-0.24432573 0.12264571 1.0140001 2.3404062e-38
-0.24239428 0.12264571 1.0140001 2.3404421e-38
-0.24046285 0.12264571 1.0140001 2.3404421e-38
-0.23923716 0.12300858 1.0170001 2.3404421e-38
-0.23730002 0.12300858 1.0170001 2.3404422e-38
-0.23536287 0.12300858 1.0170001 2.3405141e-38
-0.2341143 0.12337144 1.0200001 2.3406575e-38
-0.23285428 0.12373429 1.023 2.3402988e-38
-0.23158285 0.12409715 1.026 2.3401551e-38
-0.22962856 0.12409715 1.026 2.3399758e-38
-0.22856192 0.12458096 1.0300001 2.3398681e-38
-0.22725999 0.1249438 1.033 2.3397605e-38
-0.22594666 0.12530667 1.036 2.3397607e-38
-0.22527048 0.12603238 1.0420001 2.3397251e-38
-0.22328572 0.12603238 1.0420001 2.3397262e-38
-0.27798003 0.12494572 1.0170001 2.2937354e-38
-0.27604288 0.12494572 1.0170001 2.3397607e-38
-0.27410576 0.12494572 1.0170001 2.3401192e-38
-0.27216858 0.12494572 1.0170001 2.3400116e-38
-0.27023143 0.12494572 1.0170001 2.3400476e-38
-0.26750287 0.12457716 1.0140001 2.3401192e-38
-0.26557145 0.12457716 1.0140001 2.3401192e-38
-0.26364002 0.12457716 1.0140001 2.340191e-38
-0.26170859 0.12457716 1.0140001 2.3401911e-38
-0.25977716 0.12457716 1.0140001 2.3402269e-38
-0.25784573 0.12457716 1.0140001 2.3402627e-38
-0.2559143 0.12457716 1.0140001 2.340191e-38
-0.25398287 0.12457716 1.0140001 2.3401553e-38
-0.25205144 0.12457716 1.0140001 2.3402986e-38
-0.25086001 0.12494572 1.0170001 2.3403345e-38
-0.24892287 0.12494572 1.0170001 2.3402627e-38
-0.24698573 0.12494572 1.0170001 2.340191e-38
-0.2450486 0.12494572 1.0170001 2.3403345e-38
-0.24311143 0.12494572 1.0170001 2.3404421e-38
-0.2411743 0.12494572 1.0170001 2.340478e-38
-0.23923716 0.12494572 1.0170001 2.3405497e-38
-0.23730002 0.12494572 1.0170001 2.340514e-38
-0.23605718 0.1253143 1.0200001 2.340514e-38
-0.2341143 0.1253143 1.0200001 2.3406216e-38
-0.23285428 0.12568285 1.023 2.3403704e-38
-0.23158285 0.12605143 1.026 2.3402627e-38
-0.23052382 0.12654287 1.0300001 2.3399399e-38
-0.22922762 0.12691143 1.033 2.3398681e-38
-0.22792001 0.12728 1.036 2.3397964e-38
-0.22660096 0.12764858 1.039 2.3397605e-38
-0.22527048 0.12801716 1.0420001 2.3397607e-38
-0.22328572 0.12801716 1.0420001 2.3397253e-38
-0.22130096 0.12801716 1.0420001 2.3396184e-38
-0.27798003 0.12688287 1.0170001 2.3029546e-38
-0.27604288 0.12688287 1.0170001 2.3397246e-38
-0.27410576 0.12688287 1.0170001 2.339904e-38
-0.27216858 0.12688287 1.0170001 2.3400118e-38
-0.27023143 0.12688287 1.0170001 2.3400478e-38
-0.2682943 0.12688287 1.0170001 2.3401194e-38
-0.26557145 0.12650858 1.0140001 2.3401551e-38
-0.26364002 0.12650858 1.0140001 2.340227e-38
-0.26170859 0.12650858 1.0140001 2.3402271e-38
-0.25977716 0.12650858 1.0140001 2.3403705e-38
-0.25784573 0.12650858 1.0140001 2.3401192e-38
-0.2559143 0.12650858 1.0140001 2.3400834e-38
-0.25398287 0.12650858 1.0140001 2.3401192e-38
-0.25205144 0.12650858 1.0140001 2.3402986e-38
-0.25012001 0.12650858 1.0140001 2.3402986e-38
-0.24818859 0.12650858 1.0140001 2.3403704e-38
-0.24698573 0.12688287 1.0170001 2.3402986e-38
-0.2450486 0.12688287 1.0170001 2.3402627e-38
-0.24311143 0.12688287 1.0170001 2.3403704e-38
-0.2411743 0.12688287 1.0170001 2.3406573e-38
-0.23923716 0.12688287 1.0170001 2.3406934e-38
-0.23800002 0.12725715 1.0200001 2.3407651e-38
-0.23605718 0.12725715 1.0200001 2.3405499e-38
-0.23480286 0.12763143 1.023 2.3406215e-38
-0.23285428 0.12763143 1.023 2.3404062e-38
-0.23158285 0.12800571 1.026 2.3403704e-38
-0.23052382 0.12850477 1.0300001 2.3402988e-38
-0.22922762 0.12887904 1.033 2.3402269e-38
-0.22858 0.12962763 1.039 2.3397246e-38
-0.22660096 0.12962763 1.039 2.3396888e-38
-0.22392859 0.13037619 1.0450001 2.3397246e-38
-0.2219381 0.13037619 1.0450001 2.3396888e-38
-0.21994764 0.13037619 1.0450001 2.3399427e-38
-0.21795715 0.13037619 1.0450001 2.3396586e-38
-0.27685717 0.12920001 1.0200001 2.3397965e-38
-0.27410576 0.12882002 1.0170001 2.3398323e-38
-0.27216858 0.12882002 1.0170001 2.339976e-38
-0.27023143 0.12882002 1.0170001 2.3400482e-38
-0.2682943 0.12882002 1.0170001 2.3400837e-38
-0.26557145 0.12844001 1.0140001 2.340191e-38
-0.26364002 0.12844001 1.0140001 2.3401911e-38
-0.26170859 0.12844001 1.0140001 2.340263e-38
-0.25977716 0.12844001 1.0140001 2.3401911e-38
-0.25860861 0.12882002 1.0170001 2.3400116e-38
-0.25667146 0.12882002 1.0170001 2.3400475e-38
-0.25473428 0.12882002 1.0170001 2.3401192e-38
-0.25279716 0.12882002 1.0170001 2.3402269e-38
-0.25086001 0.12882002 1.0170001 2.3402986e-38
-0.24892287 0.12882002 1.0170001 2.3402986e-38
-0.24698573 0.12882002 1.0170001 2.3403345e-38
-0.2450486 0.12882002 1.0170001 2.3402986e-38
-0.24311143 0.12882002 1.0170001 2.3402986e-38
-0.2411743 0.12882002 1.0170001 2.3406935e-38
-0.23923716 0.12882002 1.0170001 2.3406939e-38
-0.23800002 0.12920001 1.0200001 2.3407654e-38
-0.23605718 0.12920001 1.0200001 2.3406218e-38
-0.2341143 0.12920001 1.0200001 2.34055e-38
-0.23285428 0.12958001 1.023 2.3404424e-38
-0.23158285 0.12996 1.026 2.3404422e-38
-0.23052382 0.13046667 1.0300001 2.3401553e-38
-0.22922762 0.13084666 1.033 2.3401192e-38
-0.22858 0.13160668 1.039 2.3396529e-38
-0.22660096 0.13160668 1.039 2.3396529e-38
-0.22527048 0.13198668 1.0420001 2.3396888e-38
-0.22328572 0.13198668 1.0420001 2.3396888e-38
-0.22130096 0.13198668 1.0420001 2.3397964e-38
-0.21994764 0.13236669 1.0450001 2.3397265e-38
-0.21795715 0.13236669 1.0450001 2.3396567e-38
-0.27685717 0.13114287 1.0200001 2.3399043e-38
-0.27410576 0.13075715 1.0170001 2.3399399e-38
-0.27216858 0.13075715 1.0170001 2.3399763e-38
-0.27023143 0.13075715 1.0170001 2.3400128e-38
-0.2682943 0.13075715 1.0170001 2.3399763e-38
-0.26557145 0.13037144 1.0140001 2.3401551e-38
-0.26364002 0.13037144 1.0140001 2.3401911e-38
-0.26170859 0.13037144 1.0140001 2.3401914e-38
-0.25977716 0.13037144 1.0140001 2.3401194e-38
-0.25860861 0.13075715 1.0170001 2.3400475e-38
-0.25667146 0.13075715 1.0170001 2.3403345e-38
-0.25473428 0.13075715 1.0170001 2.3402269e-38
-0.25279716 0.13075715 1.0170001 2.340191e-38
-0.25086001 0.13075715 1.0170001 2.340227e-38
-0.24818859 0.13037144 1.0140001 2.3402986e-38
-0.24625714 0.13037144 1.0140001 2.3402986e-38
-0.24432573 0.13037144 1.0140001 2.3402986e-38
-0.24311143 0.13075715 1.0170001 2.3402986e-38
-0.2411743 0.13075715 1.0170001 2.3407655e-38
-0.23923716 0.13075715 1.0170001 2.3407662e-38
-0.23800002 0.13114287 1.0200001 2.3408017e-38
-0.23605718 0.13114287 1.0200001 2.3405501e-38
-0.2341143 0.13114287 1.0200001 2.3405143e-38
-0.23285428 0.13152857 1.023 2.3405144e-38
-0.23158285 0.13191429 1.026 2.3405501e-38
-0.23052382 0.13242859 1.0300001 2.3401195e-38
-0.22922762 0.13281429 1.033 2.3400476e-38
-0.22858 0.13358571 1.039 2.3395453e-38
-0.22660096 0.13358571 1.039 2.339617e-38
-0.22527048 0.13397144 1.0420001 2.3396888e-38
-0.22328572 0.13397144 1.0420001 2.3396888e-38
-0.22130096 0.13397144 1.0420001 2.3396529e-38
-0.2193162 0.13397144 1.0420001 2.3396179e-38
-0.27685717 0.13308573 1.0200001 2.3397985e-38
-0.27491432 0.13308573 1.0200001 2.3399758e-38
-0.27297145 0.13308573 1.0200001 2.339976e-38
-0.27023143 0.13269429 1.0170001 2.3400481e-38
-0.2682943 0.13269429 1.0170001 2.3400837e-38
-0.26635715 0.13269429 1.0170001 2.3401194e-38
-0.26442003 0.13269429 1.0170001 2.3401553e-38
-0.26248288 0.13269429 1.0170001 2.3401913e-38
-0.26054573 0.13269429 1.0170001 2.3400835e-38
-0.25860861 0.13269429 1.0170001 2.3401192e-38
-0.2559143 0.13230287 1.0140001 2.340191e-38
-0.25398287 0.13230287 1.0140001 2.3402627e-38
-0.25205144 0.13230287 1.0140001 2.340191e-38
-0.25086001 0.13269429 1.0170001 2.3401194e-38
-0.24892287 0.13269429 1.0170001 2.3402627e-38
-0.24698573 0.13269429 1.0170001 2.3402627e-38
-0.2450486 0.13269429 1.0170001 2.3402627e-38
-0.24382859 0.13308573 1.0200001 2.3403345e-38
-0.2411743 0.13269429 1.0170001 2.340263e-38
-0.23994288 0.13308573 1.0200001 2.3401917e-38
-0.23800002 0.13308573 1.0200001 2.3403349e-38
-0.23605718 0.13308573 1.0200001 2.340514e-38
-0.23480286 0.13347714 1.023 2.3402988e-38
-0.23285428 0.13347714 1.023 2.3400837e-38
-0.23158285 0.13386856 1.026 2.3400837e-38
-0.23119524 0.1347819 1.033 2.3401195e-38
-0.22922762 0.1347819 1.033 2.3400476e-38
-0.22858 0.13556476 1.039 2.3394735e-38
-0.22660096 0.13556476 1.039 2.3396888e-38
-0.22527048 0.1359562 1.0420001 2.3397605e-38
-0.22328572 0.1359562 1.0420001 2.3397246e-38
-0.22130096 0.1359562 1.0420001 2.3396888e-38
-0.2193162 0.1359562 1.0420001 2.3396194e-38
-0.27767143 0.13542572 1.023 2.3397287e-38
-0.27491432 0.13502859 1.0200001 2.339904e-38
-0.27297145 0.13502859 1.0200001 2.339904e-38
-0.27102858 0.13502859 1.0200001 2.3399759e-38
-0.2682943 0.13463144 1.0170001 2.3401194e-38
-0.26635715 0.13463144 1.0170001 2.3401195e-38
-0.26442003 0.13463144 1.0170001 2.3401194e-38
-0.26248288 0.13463144 1.0170001 2.3400835e-38
-0.26054573 0.13463144 1.0170001 2.3400834e-38
-0.25860861 0.13463144 1.0170001 2.3401192e-38
-0.25667146 0.13463144 1.0170001 2.3401192e-38
-0.25473428 0.13463144 1.0170001 2.3401911e-38
-0.25279716 0.13463144 1.0170001 2.3401911e-38
-0.25086001 0.13463144 1.0170001 2.3401911e-38
-0.24892287 0.13463144 1.0170001 2.3402269e-38
-0.24698573 0.13463144 1.0170001 2.3402269e-38
-0.2450486 0.13463144 1.0170001 2.3402269e-38
-0.24311143 0.13463144 1.0170001 2.3310074e-38
-0.24188574 0.13502859 1.0200001 2.3310074e-38
-0.23994288 0.13502859 1.0200001 2.3309e-38
-0.23800002 0.13502859 1.0200001 2.3399758e-38
-0.23675144 0.13542572 1.023 2.3307563e-38
-0.23480286 0.13542572 1.023 2.3307205e-38
-0.23353714 0.13582285 1.026 2.3307922e-38
-0.23158285 0.13582285 1.026 2.3400835e-38
-0.23119524 0.13674952 1.033 2.3400838e-38
-0.22922762 0.13674952 1.033 2.3400835e-38
-0.22858 0.13754381 1.039 2.3399399e-38
-0.22725524 0.13794096 1.0420001 2.3397964e-38
-0.22591905 0.1383381 1.0450001 2.3397607e-38
-0.22328572 0.13794096 1.0420001 2.3397607e-38
-0.22130096 0.13794096 1.0420001 2.3396889e-38
-0.28239429 0.13777713 1.026 2.1742178e-38
-0.27962002 0.13737428 1.023 2.2568289e-38
-0.27767143 0.13737428 1.023 2.3398359e-38
-0.27572286 0.13737428 1.023 2.3398323e-38
-0.2737743 0.13737428 1.023 2.3398681e-38
-0.27102858 0.13697143 1.0200001 2.3398323e-38
-0.26908574 0.13697143 1.0200001 2.3400475e-38
-0.26635715 0.13656859 1.0170001 2.3400476e-38
-0.26442003 0.13656859 1.0170001 2.3400475e-38
-0.26248288 0.13656859 1.0170001 2.3400475e-38
-0.26054573 0.13656859 1.0170001 2.3400475e-38
-0.25860861 0.13656859 1.0170001 2.3401192e-38
-0.25667146 0.13656859 1.0170001 2.3400834e-38
-0.25473428 0.13656859 1.0170001 2.3401911e-38
-0.25279716 0.13656859 1.0170001 2.3401911e-38
-0.25086001 0.13656859 1.0170001 2.3400476e-38
-0.24892287 0.13656859 1.0170001 2.3399758e-38
-0.24698573 0.13656859 1.0170001 2.3399399e-38
-0.2450486 0.13656859 1.0170001 2.3400834e-38
-0.24382859 0.13697143 1.0200001 2.33029e-38
-0.24188574 0.13697143 1.0200001 2.3303259e-38
-0.23994288 0.13697143 1.0200001 2.3303976e-38
-0.23869999 0.13737428 1.023 2.3394735e-38
-0.23675144 0.13737428 1.023 2.3301824e-38
