# .PCD v0.7 - Point Cloud Data file format
VERSION 0.7
FIELDS x y z rgb
SIZE 4 4 4 4
TYPE F F F F
COUNT 1 1 1 1
WIDTH 1082
HEIGHT 1
VIEWPOINT 0 0 0 1 0 0 0
POINTS 1082
DATA ascii
-0.15765715 0.07628572 1.0680001 2.3413748e-38
-0.15562285 0.07628572 1.0680001 2.3413389e-38
-0.15358858 0.07628572 1.0680001 2.3413031e-38
-0.13882667 0.076000005 1.064 2.3411636e-38
-0.13679999 0.076000005 1.064 2.340522e-38
-0.13477334 0.076000005 1.064 2.3401673e-38
-0.18895906 0.077806674 1.0610001 2.3414467e-38
-0.18746667 0.078026667 1.064 2.3414107e-38
-0.18544 0.078026667 1.064 2.3414107e-38
-0.18341333 0.078026667 1.064 2.3413748e-38
-0.18138668 0.078026667 1.064 2.3413389e-38
-0.17936 0.078026667 1.064 2.3413033e-38
-0.17733333 0.078026667 1.064 2.3414471e-38
-0.17530668 0.078026667 1.064 2.3414124e-38
-0.17328 0.078026667 1.064 2.3413778e-38
-0.17125332 0.078026667 1.064 2.3414481e-38
-0.16922666 0.078026667 1.064 2.3415184e-38
-0.16517334 0.078026667 1.064 2.3416624e-38
-0.16268668 0.077806674 1.0610001 2.3415903e-38
-0.16066574 0.077806674 1.0610001 2.3414467e-38
-0.15864477 0.077806674 1.0610001 2.3414468e-38
-0.15706666 0.078026667 1.064 2.3414471e-38
-0.13679999 0.078026667 1.064 2.3403776e-38
-0.18491717 0.079827629 1.0610001 2.3413748e-38
-0.1828962 0.079827629 1.0610001 2.3413389e-38
-0.18087526 0.079827629 1.0610001 2.3413031e-38
-0.1788543 0.079827629 1.0610001 2.3413036e-38
-0.17683335 0.079827629 1.0610001 2.3413401e-38
-0.16268668 0.079827629 1.0610001 2.341734e-38
-0.16066574 0.079827629 1.0610001 2.3417337e-38
-0.15864477 0.079827629 1.0610001 2.3417341e-38
-0.15171905 0.079376198 1.0550001 2.3413032e-38
-0.14970952 0.079376198 1.0550001 2.3412676e-38
-0.14770001 0.079376198 1.0550001 2.341268e-38
-0.14569049 0.079376198 1.0550001 2.3413395e-38
-0.14368096 0.079376198 1.0550001 2.3413394e-38
-0.14167143 0.079376198 1.0550001 2.3414117e-38
-0.13966191 0.079376198 1.0550001 2.341484e-38
-0.13765238 0.079376198 1.0550001 2.3417375e-38
-0.18936001 0.081154287 1.052 2.3415193e-38
-0.1873562 0.081154287 1.052 2.3414107e-38
-0.18535239 0.081154287 1.052 2.3414107e-38
-0.17784287 0.081385717 1.0550001 2.3413038e-38
-0.17382382 0.081385717 1.0550001 2.3415564e-38
-0.17181429 0.081385717 1.0550001 2.3417368e-38
-0.16980477 0.081385717 1.0550001 2.3417351e-38
-0.16779526 0.081385717 1.0550001 2.3417335e-38
-0.16578573 0.081385717 1.0550001 2.3417351e-38
-0.1637762 0.081385717 1.0550001 2.3417366e-38
-0.16130668 0.081154287 1.052 2.3417362e-38
-0.15930286 0.081154287 1.052 2.3417359e-38
-0.15729904 0.081154287 1.052 2.3417355e-38
-0.15529525 0.081154287 1.052 2.3413047e-38
-0.15329143 0.081154287 1.052 2.3413039e-38
-0.15128762 0.081154287 1.052 2.3413391e-38
-0.14928381 0.081154287 1.052 2.3412675e-38
-0.14728001 0.081154287 1.052 2.3412317e-38
-0.1452762 0.081154287 1.052 2.3413038e-38
-0.14368096 0.081385717 1.0550001 2.3413759e-38
-0.14167143 0.081385717 1.0550001 2.3414482e-38
-0.13966191 0.081385717 1.0550001 2.3415564e-38
-0.13765238 0.081385717 1.0550001 2.3416297e-38
-0.13602859 0.081617147 1.0580001 2.3219011e-38
-0.19009049 0.082604766 1.0450001 2.3414107e-38
-0.18810001 0.082604766 1.0450001 2.3414824e-38
-0.17533334 0.083158098 1.052 2.3415198e-38
-0.17332952 0.083158098 1.052 2.3417345e-38
-0.17132573 0.083158098 1.052 2.341734e-38
-0.16980477 0.083395243 1.0550001 2.3417337e-38
-0.16779526 0.083395243 1.0550001 2.3417335e-38
-0.16331048 0.083158098 1.052 2.3417389e-38
-0.16130668 0.083158098 1.052 2.3417026e-38
-0.15930286 0.083158098 1.052 2.3417382e-38
-0.1542619 0.082604766 1.0450001 2.3417359e-38
-0.15227143 0.082604766 1.0450001 2.3417348e-38
-0.1487162 0.08284191 1.0480001 2.3417337e-38
-0.14327239 0.083158098 1.052 2.3416277e-38
-0.14126857 0.083158098 1.052 2.3417359e-38
-0.13926478 0.083158098 1.052 2.3414855e-38
-0.13726096 0.083158098 1.052 2.3415221e-38
-0.1935143 0.084352389 1.0420001 2.3408384e-38
-0.19152954 0.084352389 1.0420001 2.3415573e-38
-0.18954477 0.084352389 1.0420001 2.3415227e-38
-0.18756001 0.084352389 1.0420001 2.3415923e-38
-0.18610953 0.084595241 1.0450001 2.3416619e-38
-0.18411906 0.084595241 1.0450001 2.341698e-38
-0.18212858 0.084595241 1.0450001 2.341734e-38
-0.17962095 0.084352389 1.0420001 2.3416273e-38
-0.17565143 0.084352389 1.0420001 2.3416277e-38
-0.17018571 0.084595241 1.0450001 2.341734e-38
-0.16819525 0.084595241 1.0450001 2.3417363e-38
-0.16620478 0.084595241 1.0450001 2.341667e-38
-0.1642143 0.084595241 1.0450001 2.3417392e-38
-0.1562524 0.084595241 1.0450001 2.3417406e-38
-0.15381905 0.084352389 1.0420001 2.3417413e-38
-0.15183429 0.084352389 1.0420001 2.3417389e-38
-0.15028097 0.084595241 1.0450001 2.3417365e-38
-0.14829049 0.084595241 1.0450001 2.3417361e-38
-0.1463 0.084595241 1.0450001 2.3417358e-38
-0.14389525 0.084352389 1.0420001 2.341702e-38
-0.14231905 0.084595241 1.0450001 2.3416682e-38
-0.13397144 0.084352389 1.0420001 2.3122868e-38
-0.13198668 0.084352389 1.0420001 2.2937808e-38
-0.1935143 0.086337149 1.0420001 2.3410193e-38
-0.19097809 0.086088575 1.039 2.3417396e-38
-0.18954477 0.086337149 1.0420001 2.3417424e-38
-0.18702 0.086088575 1.039 2.3417382e-38
-0.18557525 0.086337149 1.0420001 2.341734e-38
-0.18359047 0.086337149 1.0420001 2.3417341e-38
-0.18160571 0.086337149 1.0420001 2.3417344e-38
-0.17910381 0.086088575 1.039 2.3415926e-38
-0.17763619 0.086337149 1.0420001 2.3415585e-38
-0.17565143 0.086337149 1.0420001 2.3417362e-38
-0.17366667 0.086337149 1.0420001 2.3417347e-38
-0.17168191 0.086337149 1.0420001 2.3417342e-38
-0.16969715 0.086337149 1.0420001 2.341734e-38
-0.16771239 0.086337149 1.0420001 2.3417389e-38
-0.16572763 0.086337149 1.0420001 2.3417439e-38
-0.16374287 0.086337149 1.0420001 2.3417422e-38
-0.1617581 0.086337149 1.0420001 2.3417047e-38
-0.15977333 0.086337149 1.0420001 2.3417054e-38
-0.15778857 0.086337149 1.0420001 2.341742e-38
-0.15580381 0.086337149 1.0420001 2.3417442e-38
-0.15381905 0.086337149 1.0420001 2.3417466e-38
-0.15139715 0.086088575 1.039 2.3417429e-38
-0.14984953 0.086337149 1.0420001 2.3417394e-38
-0.14786477 0.086337149 1.0420001 2.3417386e-38
-0.14588001 0.086337149 1.0420001 2.3417379e-38
-0.14389525 0.086337149 1.0420001 2.3417413e-38
-0.13397144 0.086337149 1.0420001 2.312144e-38
-0.13198668 0.086337149 1.0420001 2.2936379e-38
-0.13000192 0.086337149 1.0420001 2.2844947e-38
-0.19042666 0.087813333 1.036 2.3417396e-38
-0.18899906 0.088067621 1.039 2.3417408e-38
-0.18648 0.087813333 1.036 2.3417379e-38
-0.18504095 0.088067621 1.039 2.3417351e-38
-0.18306191 0.088067621 1.039 2.3417363e-38
-0.18108286 0.088067621 1.039 2.3417376e-38
-0.17910381 0.088067621 1.039 2.341666e-38
-0.17712477 0.088067621 1.039 2.3416304e-38
-0.17514572 0.088067621 1.039 2.3417372e-38
-0.17266667 0.087813333 1.036 2.3417365e-38
-0.17118762 0.088067621 1.039 2.3417351e-38
-0.16129239 0.088067621 1.039 2.341702e-38
-0.15931334 0.088067621 1.039 2.3417036e-38
-0.15733428 0.088067621 1.039 2.3417411e-38
-0.15535524 0.088067621 1.039 2.3417431e-38
-0.15337619 0.088067621 1.039 2.3417449e-38
-0.15139715 0.088067621 1.039 2.3417424e-38
-0.1494181 0.088067621 1.039 2.3417397e-38
-0.14786477 0.088321909 1.0420001 2.3417392e-38
-0.14545999 0.088067621 1.039 2.3417387e-38
-0.14348096 0.088067621 1.039 2.3417407e-38
-0.14109333 0.087813333 1.036 2.3417427e-38
-0.13198668 0.088321909 1.0420001 2.2936387e-38
-0.18932383 0.089266673 1.0300001 2.3417396e-38
-0.18504095 0.090046667 1.039 2.3417363e-38
-0.18306191 0.090046667 1.039 2.3417386e-38
-0.18108286 0.090046667 1.039 2.341741e-38
-0.17910381 0.090046667 1.039 2.3417396e-38
-0.17712477 0.090046667 1.039 2.3417382e-38
-0.17514572 0.090046667 1.039 2.3417383e-38
-0.17266667 0.089786664 1.036 2.3417385e-38
-0.17069332 0.089786664 1.036 2.3417359e-38
-0.16823143 0.089526661 1.033 2.3417335e-38
-0.1662638 0.089526661 1.033 2.3417355e-38
-0.16429619 0.089526661 1.033 2.3417375e-38
-0.16232856 0.089526661 1.033 2.3417363e-38
-0.16036095 0.089526661 1.033 2.3416994e-38
-0.15839334 0.089526661 1.033 2.3417377e-38
-0.1564257 0.089526661 1.033 2.3417404e-38
-0.15490668 0.089786664 1.036 2.3417418e-38
-0.15293333 0.089786664 1.036 2.3417434e-38
-0.15096 0.089786664 1.036 2.3417417e-38
-0.14898667 0.089786664 1.036 2.3417401e-38
-0.14743905 0.090046667 1.039 2.3417399e-38
-0.14068475 0.089526661 1.033 2.3417408e-38
-0.13871714 0.089526661 1.033 2.3417372e-38
-0.13281429 0.089526661 1.033 2.3211871e-38
-0.19324763 0.091228582 1.0300001 2.3404184e-38
-0.19128573 0.091228582 1.0300001 2.3412404e-38
-0.18932383 0.091228582 1.0300001 2.3417427e-38
-0.18736191 0.091228582 1.0300001 2.3417428e-38
-0.18594 0.091494285 1.033 2.3417394e-38
-0.18450667 0.091760002 1.036 2.3417362e-38
-0.18306191 0.09202572 1.039 2.3417377e-38
-0.18108286 0.09202572 1.039 2.3417393e-38
-0.17858668 0.091760002 1.036 2.3417389e-38
-0.17661333 0.091760002 1.036 2.3417385e-38
-0.17464 0.091760002 1.036 2.3417399e-38
-0.17216666 0.091494285 1.033 2.3417411e-38
-0.17019905 0.091494285 1.033 2.341738e-38
-0.16823143 0.091494285 1.033 2.3417351e-38
-0.16578098 0.091228582 1.0300001 2.3417365e-38
-0.16429619 0.091494285 1.033 2.341738e-38
-0.16036095 0.091494285 1.033 2.3417043e-38
-0.15839334 0.091494285 1.033 2.3417404e-38
-0.15249048 0.091494285 1.033 2.3417421e-38
-0.15052286 0.091494285 1.033 2.3417411e-38
-0.1422381 0.091228582 1.0300001 2.3417421e-38
-0.14027619 0.091228582 1.0300001 2.3417425e-38
-0.13831429 0.091228582 1.0300001 2.3412717e-38
-0.13582285 0.090874285 1.026 2.3220033e-38
-0.13439049 0.091228582 1.0300001 2.3122502e-38
-0.13242859 0.091228582 1.0300001 2.3211871e-38
-0.13046667 0.091228582 1.0300001 2.3396288e-38
-0.19249715 0.092828572 1.026 2.3405269e-38
-0.19128573 0.093190484 1.0300001 2.3412434e-38
-0.18858857 0.092828572 1.026 2.3417459e-38
-0.18736191 0.093190484 1.0300001 2.3417463e-38
-0.18540001 0.093190484 1.0300001 2.3417413e-38
-0.18343811 0.093190484 1.0300001 2.3417362e-38
-0.18253334 0.093733333 1.036 2.3417369e-38
-0.18055999 0.093733333 1.036 2.3417376e-38
-0.17858668 0.093733333 1.036 2.3417382e-38
-0.17661333 0.093733333 1.036 2.3417389e-38
-0.17464 0.093733333 1.036 2.3417414e-38
-0.17216666 0.093461908 1.033 2.3417439e-38
-0.16970478 0.093190484 1.0300001 2.3417403e-38
-0.16774288 0.093190484 1.0300001 2.3417366e-38
-0.16513714 0.092828572 1.026 2.3417376e-38
-0.16318287 0.092828572 1.026 2.3417386e-38
-0.16122858 0.092828572 1.026 2.3417418e-38
-0.15927429 0.092828572 1.026 2.3417452e-38
-0.15732001 0.092828572 1.026 2.3417429e-38
-0.15536572 0.092828572 1.026 2.3417408e-38
-0.15341143 0.092828572 1.026 2.3417408e-38
-0.15145715 0.092828572 1.026 2.3417408e-38
-0.14754859 0.092828572 1.026 2.3417403e-38
-0.14168572 0.092828572 1.026 2.3417442e-38
-0.13973142 0.092828572 1.026 2.3412778e-38
-0.13777713 0.092828572 1.026 2.340842e-38
-0.13582285 0.092828572 1.026 2.3215369e-38
-0.19445144 0.094782859 1.026 2.3121897e-38
-0.19249715 0.094782859 1.026 2.340346e-38
-0.19054286 0.094782859 1.026 2.3412746e-38
-0.18858857 0.094782859 1.026 2.3414924e-38
-0.18663429 0.094782859 1.026 2.341746e-38
-0.18540001 0.095152393 1.0300001 2.3417411e-38
-0.18343811 0.095152393 1.0300001 2.3417363e-38
-0.18200475 0.095429517 1.033 2.341738e-38
-0.18055999 0.095706671 1.036 2.3417399e-38
-0.17858668 0.095706671 1.036 2.3417396e-38
-0.17610191 0.095429517 1.033 2.3417036e-38
-0.17413428 0.095429517 1.033 2.34174e-38
-0.17166668 0.095152393 1.0300001 2.3417407e-38
-0.16970478 0.095152393 1.0300001 2.3417389e-38
-0.16709143 0.094782859 1.026 2.3417372e-38
-0.16513714 0.094782859 1.026 2.341738e-38
-0.16270572 0.094505712 1.023 2.341739e-38
-0.16075714 0.094505712 1.023 2.3417417e-38
-0.15880856 0.094505712 1.023 2.3417445e-38
-0.15685999 0.094505712 1.023 2.3417435e-38
-0.15491143 0.094505712 1.023 2.3417425e-38
-0.15145715 0.094782859 1.026 2.3417418e-38
-0.1490657 0.094505712 1.023 2.3417418e-38
-0.14711715 0.094505712 1.023 2.3417417e-38
-0.14474286 0.094228581 1.0200001 2.3417403e-38
-0.14280002 0.094228581 1.0200001 2.3415955e-38
-0.14085715 0.094228581 1.0200001 2.3413443e-38
-0.13932286 0.094505712 1.023 2.3406627e-38
-0.13737428 0.094505712 1.023 2.3403013e-38
-0.13502859 0.094228581 1.0200001 2.33029e-38
-0.13308573 0.094228581 1.0200001 2.3211461e-38
-0.13114287 0.094228581 1.0200001 2.3304053e-38
-0.12920001 0.094228581 1.0200001 2.3395918e-38
-0.19388285 0.096454285 1.023 2.3029719e-38
-0.19249715 0.096737146 1.026 2.3126146e-38
-0.19054286 0.096737146 1.026 2.3222213e-38
-0.18803714 0.096454285 1.023 2.3410595e-38
-0.18663429 0.096737146 1.026 2.3413871e-38
-0.18343811 0.097114295 1.0300001 2.3417365e-38
-0.18147621 0.097114295 1.0300001 2.3417393e-38
-0.16904572 0.096737146 1.026 2.3417376e-38
-0.16709143 0.096737146 1.026 2.3417377e-38
-0.16465428 0.096454285 1.023 2.3417386e-38
-0.16318287 0.096737146 1.026 2.3417394e-38
-0.16122858 0.096737146 1.026 2.3417417e-38
-0.15927429 0.096737146 1.026 2.3417439e-38
-0.15685999 0.096454285 1.023 2.3417441e-38
-0.15491143 0.096454285 1.023 2.3417443e-38
-0.15251429 0.096171439 1.0200001 2.3417436e-38
-0.15101428 0.096454285 1.023 2.3417429e-38
-0.14862858 0.096171439 1.0200001 2.3417431e-38
-0.14668573 0.096171439 1.0200001 2.3417432e-38
-0.14431715 0.095888577 1.0170001 2.3417385e-38
-0.14238 0.095888577 1.0170001 2.3413392e-38
-0.14044286 0.095888577 1.0170001 2.3409803e-38
-0.1389143 0.096171439 1.0200001 2.3310074e-38
-0.13697143 0.096171439 1.0200001 2.3306128e-38
-0.13463144 0.095888577 1.0170001 2.3303259e-38
-0.13308573 0.096171439 1.0200001 2.3302573e-38
-0.13075715 0.095888577 1.0170001 2.3304399e-38
-0.12882002 0.095888577 1.0170001 2.3397702e-38
-0.12688287 0.095888577 1.0170001 2.2662334e-38
-0.19388285 0.098402858 1.023 2.2845693e-38
-0.19193429 0.098402858 1.023 2.2844535e-38
-0.18998571 0.098402858 1.023 2.3118884e-38
-0.18499716 0.097825721 1.0170001 2.3406994e-38
-0.18306001 0.097825721 1.0170001 2.3410557e-38
-0.18112287 0.097825721 1.0170001 2.341448e-38
-0.16660285 0.098402858 1.023 2.3415204e-38
-0.16465428 0.098402858 1.023 2.3413773e-38
-0.16270572 0.098402858 1.023 2.3412701e-38
-0.16075714 0.098402858 1.023 2.3412713e-38
-0.15880856 0.098402858 1.023 2.3412724e-38
-0.15685999 0.098402858 1.023 2.3414876e-38
-0.14196001 0.097537152 1.0140001 2.3403705e-38
-0.14002858 0.097537152 1.0140001 2.3400475e-38
-0.13809715 0.097537152 1.0140001 2.330577e-38
-0.13656859 0.097825721 1.0170001 2.3214293e-38
-0.13463144 0.097825721 1.0170001 2.3303976e-38
-0.13230287 0.097537152 1.0140001 2.3396197e-38
-0.13037144 0.097537152 1.0140001 2.3396942e-38
-0.12844001 0.097537152 1.0140001 2.3397342e-38
-0.12650858 0.097537152 1.0140001 2.2751665e-38
-0.19388285 0.10035143 1.023 2.2937531e-38
-0.19193429 0.10035143 1.023 2.311896e-38
-0.18998571 0.10035143 1.023 2.3210347e-38
-0.18748572 0.10005715 1.0200001 2.3399399e-38
-0.18499716 0.099762864 1.0170001 2.3309357e-38
-0.18252 0.099468581 1.0140001 2.3311509e-38
-0.18058857 0.099468581 1.0140001 2.3312227e-38
-0.17865716 0.099468581 1.0140001 2.3312958e-38
-0.17376 0.09888 1.008 2.3406948e-38
-0.17184001 0.09888 1.008 2.3408011e-38
-0.16992 0.09888 1.008 2.3409096e-38
-0.16800001 0.09888 1.008 2.3410182e-38
-0.16575049 0.098683812 1.006 2.3411247e-38
-0.16416 0.09888 1.008 2.3410161e-38
-0.16224 0.09888 1.008 2.3409085e-38
-0.16032 0.09888 1.008 2.3409802e-38
-0.1584 0.09888 1.008 2.341052e-38
-0.15072 0.09888 1.008 2.3313662e-38
-0.1488 0.09888 1.008 2.3315455e-38
-0.14688 0.09888 1.008 2.3409085e-38
-0.14496 0.09888 1.008 2.3405139e-38
-0.14304 0.09888 1.008 2.3401551e-38
-0.14111999 0.09888 1.008 2.3401192e-38
-0.1392 0.09888 1.008 2.3401192e-38
-0.13768856 0.099174291 1.011 2.3306846e-38
-0.13616572 0.099468581 1.0140001 2.3306487e-38
-0.13423429 0.099468581 1.0140001 2.3306128e-38
-0.13230287 0.099468581 1.0140001 2.3397986e-38
-0.13037144 0.099468581 1.0140001 2.330474e-38
-0.12844001 0.099468581 1.0140001 2.3305148e-38
-0.12650858 0.099468581 1.0140001 2.275239e-38
-0.19388285 0.1023 1.023 2.2937887e-38
-0.19193429 0.1023 1.023 2.3395541e-38
-0.18887144 0.10170001 1.0170001 2.3394018e-38
-0.18693431 0.10170001 1.0170001 2.3398323e-38
-0.18445143 0.10140001 1.0140001 2.3304693e-38
-0.18252 0.10140001 1.0140001 2.3304693e-38
-0.18058857 0.10140001 1.0140001 2.3304693e-38
-0.17533143 0.1006 1.006 2.3307219e-38
-0.17376 0.1008 1.008 2.3400123e-38
-0.17149904 0.1006 1.006 2.3401194e-38
-0.16958287 0.1006 1.006 2.3401198e-38
-0.16766667 0.1006 1.006 2.3401561e-38
-0.16575049 0.1006 1.006 2.3401555e-38
-0.16383429 0.1006 1.006 2.340191e-38
-0.1619181 0.1006 1.006 2.3401551e-38
-0.16000192 0.1006 1.006 2.3401192e-38
-0.15808572 0.1006 1.006 2.3401551e-38
-0.15616953 0.1006 1.006 2.340191e-38
-0.15456001 0.1008 1.008 2.3401551e-38
-0.15264 0.1008 1.008 2.3309716e-38
-0.15042095 0.1006 1.006 2.3310792e-38
-0.14850476 0.1006 1.006 2.3311868e-38
-0.14688 0.1008 1.008 2.3402627e-38
-0.14496 0.1008 1.008 2.340191e-38
-0.14304 0.1008 1.008 2.3401192e-38
-0.14111999 0.1008 1.008 2.3400116e-38
-0.1392 0.1008 1.008 2.3400116e-38
-0.13768856 0.10110001 1.011 2.3400116e-38
-0.13576287 0.10110001 1.011 2.339904e-38
-0.13423429 0.10140001 1.0140001 2.3398323e-38
-0.13230287 0.10140001 1.0140001 2.3397267e-38
-0.13037144 0.10140001 1.0140001 2.3304377e-38
-0.12844001 0.10140001 1.0140001 2.330514e-38
-0.18887144 0.10363715 1.0170001 2.3396888e-38
-0.18638286 0.10333144 1.0140001 2.3397246e-38
-0.18445143 0.10333144 1.0140001 2.3305052e-38
-0.18198001 0.10302571 1.011 2.3304335e-38
-0.17724761 0.1025162 1.006 2.330577e-38
-0.17533143 0.1025162 1.006 2.3307563e-38
-0.17341524 0.1025162 1.006 2.3399399e-38
-0.17149904 0.1025162 1.006 2.3400834e-38
-0.16958287 0.1025162 1.006 2.3400834e-38
-0.16766667 0.1025162 1.006 2.3401551e-38
-0.16575049 0.1025162 1.006 2.3402269e-38
-0.16383429 0.1025162 1.006 2.340191e-38
-0.1619181 0.1025162 1.006 2.3401551e-38
-0.16000192 0.1025162 1.006 2.3400834e-38
-0.15808572 0.1025162 1.006 2.3400834e-38
-0.15616953 0.1025162 1.006 2.3400834e-38
-0.15425333 0.1025162 1.006 2.3400834e-38
-0.15233715 0.1025162 1.006 2.3308281e-38
-0.15042095 0.1025162 1.006 2.3307563e-38
-0.14850476 0.1025162 1.006 2.3308281e-38
-0.14688 0.10272 1.008 2.3400834e-38
-0.14496 0.10272 1.008 2.3400834e-38
-0.14304 0.10272 1.008 2.3400834e-38
-0.14154001 0.10302571 1.011 2.3400475e-38
-0.13961428 0.10302571 1.011 2.3400116e-38
-0.13768856 0.10302571 1.011 2.3400475e-38
-0.13616572 0.10333144 1.0140001 2.3401192e-38
-0.13463144 0.10363715 1.0170001 2.3305411e-38
-0.13269429 0.10363715 1.0170001 2.3304713e-38
-0.13075715 0.10363715 1.0170001 2.3304733e-38
-0.12844001 0.10333144 1.0140001 2.3213298e-38
-0.19274572 0.10557429 1.0170001 2.2847835e-38
-0.19080858 0.10557429 1.0170001 2.3399856e-38
-0.18831429 0.10526286 1.0140001 2.3401222e-38
-0.18638286 0.10526286 1.0140001 2.3399416e-38
-0.18336 0.10464 1.008 2.3397609e-38
-0.18108 0.10443239 1.006 2.3396173e-38
-0.17916381 0.10443239 1.006 2.3395094e-38
-0.17724761 0.10443239 1.006 2.339904e-38
-0.17533143 0.10443239 1.006 2.3399758e-38
-0.17341524 0.10443239 1.006 2.3399758e-38
-0.17149904 0.10443239 1.006 2.3400475e-38
-0.16958287 0.10443239 1.006 2.3400475e-38
-0.16766667 0.10443239 1.006 2.339904e-38
-0.16525619 0.10412095 1.003 2.3398681e-38
-0.16334571 0.10412095 1.003 2.3398323e-38
-0.1619181 0.10443239 1.006 2.3399399e-38
-0.16000192 0.10443239 1.006 2.3400475e-38
-0.15808572 0.10443239 1.006 2.339904e-38
-0.15616953 0.10443239 1.006 2.3397605e-38
-0.15425333 0.10443239 1.006 2.3397605e-38
-0.15233715 0.10443239 1.006 2.330577e-38
-0.15042095 0.10443239 1.006 2.330864e-38
-0.14850476 0.10443239 1.006 2.330864e-38
-0.14658856 0.10443239 1.006 2.3400475e-38
-0.14467238 0.10443239 1.006 2.3400475e-38
-0.14304 0.10464 1.008 2.3402273e-38
-0.14111999 0.10464 1.008 2.3404429e-38
-0.13961428 0.10495143 1.011 2.3403349e-38
-0.13768856 0.10495143 1.011 2.3402269e-38
-0.13616572 0.10526286 1.0140001 2.3401192e-38
-0.13463144 0.10557429 1.0170001 2.3301824e-38
-0.13269429 0.10557429 1.0170001 2.3302202e-38
-0.13075715 0.10557429 1.0170001 2.3211104e-38
-0.19080858 0.10751144 1.0170001 2.3032168e-38
-0.18831429 0.10719429 1.0140001 2.3215071e-38
-0.1829962 0.10634858 1.006 2.3398332e-38
-0.18108 0.10634858 1.006 2.3402633e-38
-0.17916381 0.10634858 1.006 2.3401553e-38
-0.17724761 0.10634858 1.006 2.3400834e-38
-0.17533143 0.10634858 1.006 2.3400116e-38
-0.17341524 0.10634858 1.006 2.3400116e-38
-0.17149904 0.10634858 1.006 2.3400116e-38
-0.16958287 0.10634858 1.006 2.3400475e-38
-0.16766667 0.10634858 1.006 2.3399399e-38
-0.16525619 0.10603143 1.003 2.3397246e-38
-0.16334571 0.10603143 1.003 2.3397246e-38
-0.16143525 0.10603143 1.003 2.3397246e-38
-0.15952477 0.10603143 1.003 2.339904e-38
-0.15761429 0.10603143 1.003 2.3397964e-38
-0.15570381 0.10603143 1.003 2.3399758e-38
-0.15379333 0.10603143 1.003 2.3401551e-38
-0.15188286 0.10603143 1.003 2.3309716e-38
-0.15042095 0.10634858 1.006 2.3309716e-38
-0.14850476 0.10634858 1.006 2.3310074e-38
-0.14658856 0.10634858 1.006 2.3402627e-38
-0.14467238 0.10634858 1.006 2.3404064e-38
-0.14304 0.10656 1.008 2.3405864e-38
-0.14154001 0.10687714 1.011 2.3405873e-38
-0.13961428 0.10687714 1.011 2.3405864e-38
-0.13768856 0.10687714 1.011 2.3400118e-38
-0.13616572 0.10719429 1.0140001 2.3401551e-38
-0.13463144 0.10751144 1.0170001 2.3303259e-38
-0.13269429 0.10751144 1.0170001 2.3302561e-38
-0.13075715 0.10751144 1.0170001 2.3302939e-38
-0.18831429 0.10912572 1.0140001 2.3029243e-38
-0.18491238 0.10826476 1.006 2.3397635e-38
-0.1829962 0.10826476 1.006 2.3399044e-38
-0.18108 0.10826476 1.006 2.3400119e-38
-0.17916381 0.10826476 1.006 2.3401551e-38
-0.17724761 0.10826476 1.006 2.3400834e-38
-0.17533143 0.10826476 1.006 2.3400475e-38
-0.17341524 0.10826476 1.006 2.3401195e-38
-0.17149904 0.10826476 1.006 2.3402274e-38
-0.16958287 0.10826476 1.006 2.3400119e-38
-0.16766667 0.10826476 1.006 2.3400118e-38
-0.16575049 0.10826476 1.006 2.3400478e-38
-0.16383429 0.10826476 1.006 2.3401198e-38
-0.1619181 0.10826476 1.006 2.3401202e-38
-0.16000192 0.10826476 1.006 2.3401207e-38
-0.15808572 0.10826476 1.006 2.340156e-38
-0.15616953 0.10826476 1.006 2.3401913e-38
-0.15425333 0.10826476 1.006 2.3404071e-38
-0.15233715 0.10826476 1.006 2.3406587e-38
-0.15042095 0.10826476 1.006 2.3406582e-38
-0.14850476 0.10826476 1.006 2.3406935e-38
-0.14658856 0.10826476 1.006 2.3405857e-38
-0.14467238 0.10826476 1.006 2.3405139e-38
-0.14304 0.10848 1.008 2.3403349e-38
-0.14154001 0.10880286 1.011 2.3401918e-38
-0.13961428 0.10880286 1.011 2.3400121e-38
-0.13809715 0.10912572 1.0140001 2.3398323e-38
-0.13616572 0.10912572 1.0140001 2.3400834e-38
-0.13463144 0.10944857 1.0170001 2.3396888e-38
-0.13269429 0.10944857 1.0170001 2.33962e-38
-0.13075715 0.10944857 1.0170001 2.3391924e-38
-0.18831429 0.11105715 1.0140001 2.3028163e-38
-0.1829962 0.11018095 1.006 2.3305411e-38
-0.18108 0.11018095 1.006 2.339904e-38
-0.17916381 0.11018095 1.006 2.3398323e-38
-0.17724761 0.11018095 1.006 2.3397605e-38
-0.17533143 0.11018095 1.006 2.3398681e-38
-0.17341524 0.11018095 1.006 2.3401916e-38
-0.17149904 0.11018095 1.006 2.3309011e-38
-0.16958287 0.11018095 1.006 2.3308288e-38
-0.16766667 0.11018095 1.006 2.3307566e-38
-0.16575049 0.11018095 1.006 2.3407298e-38
-0.16383429 0.11018095 1.006 2.3400488e-38
-0.1619181 0.11018095 1.006 2.3409104e-38
-0.16000192 0.11018095 1.006 2.3400862e-38
-0.15808572 0.11018095 1.006 2.3410178e-38
-0.15616953 0.11018095 1.006 2.3401557e-38
-0.15425333 0.11018095 1.006 2.3407666e-38
-0.15233715 0.11018095 1.006 2.3314766e-38
-0.15042095 0.11018095 1.006 2.3314037e-38
-0.14850476 0.11018095 1.006 2.3314385e-38
-0.14658856 0.11018095 1.006 2.3406935e-38
-0.14467238 0.11018095 1.006 2.3403345e-38
-0.14304 0.1104 1.008 2.340191e-38
-0.14154001 0.11072858 1.011 2.3401551e-38
-0.13961428 0.11072858 1.011 2.3400834e-38
-0.13809715 0.11105715 1.0140001 2.3400475e-38
-0.13616572 0.11105715 1.0140001 2.3400475e-38
-0.13463144 0.11138573 1.0170001 2.3397248e-38
-0.18638286 0.11298858 1.0140001 2.3119627e-38
-0.18336 0.11232001 1.008 2.3211782e-38
-0.18108 0.11209714 1.006 2.339904e-38
-0.17952 0.11232001 1.008 2.3398323e-38
-0.17724761 0.11209714 1.006 2.3397964e-38
-0.17533143 0.11209714 1.006 2.3397246e-38
-0.17341524 0.11209714 1.006 2.3400837e-38
-0.17149904 0.11209714 1.006 2.3307928e-38
-0.16958287 0.11209714 1.006 2.3307566e-38
-0.16766667 0.11209714 1.006 2.3307206e-38
-0.16575049 0.11209714 1.006 2.3399402e-38
-0.16383429 0.11209714 1.006 2.3400122e-38
-0.1619181 0.11209714 1.006 2.3400485e-38
-0.16000192 0.11209714 1.006 2.3400848e-38
-0.1584 0.11232001 1.008 2.3400842e-38
-0.15616953 0.11209714 1.006 2.3401195e-38
-0.15425333 0.11209714 1.006 2.3400125e-38
-0.15233715 0.11209714 1.006 2.3307577e-38
-0.15042095 0.11209714 1.006 2.3308289e-38
-0.14850476 0.11209714 1.006 2.330936e-38
-0.14688 0.11232001 1.008 2.3401194e-38
-0.14496 0.11232001 1.008 2.3401551e-38
-0.14346571 0.11265428 1.011 2.340191e-38
-0.14196001 0.11298858 1.0140001 2.3401192e-38
-0.14002858 0.11298858 1.0140001 2.3401192e-38
-0.13656859 0.11332286 1.0170001 2.3401194e-38
-0.13542572 0.11399143 1.023 2.3397608e-38
-0.13386856 0.11432571 1.026 2.3396551e-38
-0.13191429 0.11432571 1.026 2.3303659e-38
-0.18336 0.11424001 1.008 2.3304335e-38
-0.18144001 0.11424001 1.008 2.3399399e-38
-0.17952 0.11424001 1.008 2.339904e-38
-0.1776 0.11424001 1.008 2.3398681e-38
-0.17533143 0.11401334 1.006 2.339904e-38
-0.17341524 0.11401334 1.006 2.3399758e-38
-0.17184001 0.11424001 1.008 2.330864e-38
-0.16958287 0.11401334 1.006 2.3306128e-38
-0.16766667 0.11401334 1.006 2.3306846e-38
-0.16575049 0.11401334 1.006 2.3399399e-38
-0.16383429 0.11401334 1.006 2.3400116e-38
-0.16224 0.11424001 1.008 2.3400475e-38
-0.16032 0.11424001 1.008 2.3400116e-38
-0.1584 0.11424001 1.008 2.3400116e-38
-0.15648 0.11424001 1.008 2.3400475e-38
-0.15456001 0.11424001 1.008 2.3400475e-38
-0.15264 0.11424001 1.008 2.3308998e-38
-0.15072 0.11424001 1.008 2.3309357e-38
-0.1488 0.11424001 1.008 2.3309716e-38
-0.14688 0.11424001 1.008 2.340191e-38
-0.14496 0.11424001 1.008 2.340191e-38
-0.14346571 0.11458001 1.011 2.340191e-38
-0.14196001 0.11492001 1.0140001 2.340191e-38
-0.14002858 0.11492001 1.0140001 2.340227e-38
-0.13850573 0.11526 1.0170001 2.3401913e-38
-0.13697143 0.11560001 1.0200001 2.3401913e-38
-0.13542572 0.11594 1.023 2.3397251e-38
-0.13347714 0.11594 1.023 2.3395816e-38
-0.13152857 0.11594 1.023 2.3211786e-38
-0.18336 0.11616 1.008 2.33969e-38
-0.18144001 0.11616 1.008 2.3400482e-38
-0.17952 0.11616 1.008 2.3400116e-38
-0.1776 0.11616 1.008 2.3399399e-38
-0.17568 0.11616 1.008 2.3400476e-38
-0.17376 0.11616 1.008 2.3400834e-38
-0.17184001 0.11616 1.008 2.3401192e-38
-0.16992 0.11616 1.008 2.3400834e-38
-0.16800001 0.11616 1.008 2.3400834e-38
-0.16608 0.11616 1.008 2.3400834e-38
-0.16416 0.11616 1.008 2.3401192e-38
-0.16224 0.11616 1.008 2.3401551e-38
-0.16032 0.11616 1.008 2.340227e-38
-0.15887143 0.11650571 1.011 2.3401551e-38
-0.15648 0.11616 1.008 2.3400834e-38
-0.15456001 0.11616 1.008 2.3400834e-38
-0.15264 0.11616 1.008 2.340227e-38
-0.15072 0.11616 1.008 2.3402627e-38
-0.1488 0.11616 1.008 2.3402986e-38
-0.14688 0.11616 1.008 2.3402988e-38
-0.14496 0.11616 1.008 2.3402988e-38
-0.14346571 0.11650571 1.011 2.3402627e-38
-0.14196001 0.11685143 1.0140001 2.3402269e-38
-0.14044286 0.11719715 1.0170001 2.3402269e-38
-0.1389143 0.11754287 1.0200001 2.3402988e-38
-0.13737428 0.11788857 1.023 2.3401553e-38
-0.13542572 0.11788857 1.023 2.3396891e-38
-0.13386856 0.11823429 1.026 2.3396549e-38
-0.13191429 0.11823429 1.026 2.3212536e-38
-0.18336 0.11808 1.008 2.3306155e-38
-0.18144001 0.11808 1.008 2.3401924e-38
-0.18005429 0.11843143 1.011 2.3399042e-38
-0.1776 0.11808 1.008 2.3399042e-38
-0.17568 0.11808 1.008 2.3399402e-38
-0.17376 0.11808 1.008 2.3401553e-38
-0.17184001 0.11808 1.008 2.3401553e-38
-0.16992 0.11808 1.008 2.3401551e-38
-0.16800001 0.11808 1.008 2.3401192e-38
-0.16608 0.11808 1.008 2.3400834e-38
-0.16416 0.11808 1.008 2.3401553e-38
-0.16272287 0.11843143 1.011 2.3402988e-38
-0.16032 0.11808 1.008 2.340263e-38
-0.15887143 0.11843143 1.011 2.3406575e-38
-0.15648 0.11808 1.008 2.3401192e-38
-0.15502001 0.11843143 1.011 2.3401553e-38
-0.15309429 0.11843143 1.011 2.3402271e-38
-0.15116857 0.11843143 1.011 2.3402629e-38
-0.14924286 0.11843143 1.011 2.3402988e-38
-0.14688 0.11808 1.008 2.3403348e-38
-0.14496 0.11808 1.008 2.3403349e-38
-0.14346571 0.11843143 1.011 2.3403705e-38
-0.14196001 0.11878286 1.0140001 2.3402986e-38
-0.14044286 0.11913429 1.0170001 2.3402627e-38
-0.13850573 0.11913429 1.0170001 2.340191e-38
-0.13737428 0.11983714 1.023 2.3401194e-38
-0.13542572 0.11983714 1.023 2.3397249e-38
-0.13386856 0.12018858 1.026 2.3398e-38
-0.13191429 0.12018858 1.026 2.3211852e-38
-0.19080858 0.12107144 1.0170001 2.2844964e-38
-0.18887144 0.12107144 1.0170001 2.2936396e-38
-0.18693431 0.12107144 1.0170001 2.3120731e-38
-0.18499716 0.12107144 1.0170001 2.321574e-38
-0.18198001 0.12035715 1.011 2.3398688e-38
-0.18005429 0.12035715 1.011 2.3397965e-38
-0.17812857 0.12035715 1.011 2.3397965e-38
-0.17620285 0.12035715 1.011 2.3398324e-38
-0.17376 0.12 1.008 2.3400834e-38
-0.17235143 0.12035715 1.011 2.3402627e-38
-0.17042571 0.12035715 1.011 2.340191e-38
-0.16850001 0.12035715 1.011 2.340191e-38
-0.16657428 0.12035715 1.011 2.340191e-38
-0.16416 0.12 1.008 2.3401911e-38
-0.16272287 0.12035715 1.011 2.3403346e-38
-0.16079715 0.12035715 1.011 2.3403346e-38
-0.15887143 0.12035715 1.011 2.3402627e-38
-0.15648 0.12 1.008 2.340191e-38
-0.15502001 0.12035715 1.011 2.340191e-38
-0.15309429 0.12035715 1.011 2.340227e-38
-0.15116857 0.12035715 1.011 2.3402627e-38
-0.14968573 0.12071429 1.0140001 2.3403345e-38
-0.14731714 0.12035715 1.011 2.3403705e-38
-0.14539143 0.12035715 1.011 2.3404422e-38
-0.14389144 0.12071429 1.0140001 2.3403704e-38
-0.14238 0.12107144 1.0170001 2.3403704e-38
-0.14044286 0.12107144 1.0170001 2.340191e-38
-0.1389143 0.12142859 1.0200001 2.3399759e-38
-0.13737428 0.12178572 1.023 2.3401911e-38
-0.13542572 0.12178572 1.023 2.3397607e-38
-0.13386856 0.12214286 1.026 2.3397993e-38
-0.13191429 0.12214286 1.026 2.3301522e-38
-0.19080858 0.12300858 1.0170001 2.2665595e-38
-0.18887144 0.12300858 1.0170001 2.2752369e-38
-0.18693431 0.12300858 1.0170001 2.2938131e-38
-0.18445143 0.12264571 1.0140001 2.3123175e-38
-0.18252 0.12264571 1.0140001 2.3398681e-38
-0.18058857 0.12264571 1.0140001 2.3399042e-38
-0.17865716 0.12264571 1.0140001 2.3401551e-38
-0.17620285 0.12228286 1.011 2.3400834e-38
-0.17427716 0.12228286 1.011 2.3400116e-38
-0.17235143 0.12228286 1.011 2.3401192e-38
-0.17042571 0.12228286 1.011 2.3402269e-38
-0.16850001 0.12228286 1.011 2.340191e-38
-0.16608 0.12192 1.008 2.3401551e-38
-0.16416 0.12192 1.008 2.340227e-38
-0.16272287 0.12228286 1.011 2.3404062e-38
-0.16079715 0.12228286 1.011 2.3402269e-38
-0.15887143 0.12228286 1.011 2.3401551e-38
-0.15694571 0.12228286 1.011 2.3401551e-38
-0.15548001 0.12264571 1.0140001 2.340191e-38
-0.15354858 0.12264571 1.0140001 2.3402269e-38
-0.15161715 0.12264571 1.0140001 2.3402986e-38
-0.15012857 0.12300858 1.0170001 2.3403345e-38
-0.1477543 0.12264571 1.0140001 2.3404062e-38
-0.14582287 0.12264571 1.0140001 2.3404062e-38
-0.14431715 0.12300858 1.0170001 2.3404062e-38
-0.14238 0.12300858 1.0170001 2.3402986e-38
-0.14085715 0.12337144 1.0200001 2.3401553e-38
-0.1389143 0.12337144 1.0200001 2.3401913e-38
-0.13777713 0.12409715 1.026 2.3402629e-38
-0.13582285 0.12409715 1.026 2.3398324e-38
-0.13386856 0.12409715 1.026 2.3398346e-38
-0.13242859 0.12458096 1.0300001 2.3306175e-38
-0.13046667 0.12458096 1.0300001 2.330585e-38
-0.12887904 0.1249438 1.033 2.2568329e-38
-0.19080858 0.12494572 1.0170001 2.2569094e-38
-0.18887144 0.12494572 1.0170001 2.266018e-38
-0.18638286 0.12457716 1.0140001 2.2753388e-38
-0.18445143 0.12457716 1.0140001 2.3030983e-38
-0.18252 0.12457716 1.0140001 2.3399402e-38
-0.18058857 0.12457716 1.0140001 2.3400476e-38
-0.17865716 0.12457716 1.0140001 2.3400476e-38
-0.17620285 0.12420858 1.011 2.3400475e-38
-0.17427716 0.12420858 1.011 2.3400475e-38
-0.17235143 0.12420858 1.011 2.3400475e-38
-0.17042571 0.12420858 1.011 2.340191e-38
-0.16850001 0.12420858 1.011 2.3401911e-38
-0.16657428 0.12420858 1.011 2.3401553e-38
-0.16464858 0.12420858 1.011 2.3402627e-38
-0.16272287 0.12420858 1.011 2.3403346e-38
-0.16079715 0.12420858 1.011 2.3401197e-38
-0.15887143 0.12420858 1.011 2.3401553e-38
-0.15694571 0.12420858 1.011 2.3402986e-38
-0.15548001 0.12457716 1.0140001 2.3402269e-38
-0.15354858 0.12457716 1.0140001 2.3402269e-38
-0.15206572 0.12494572 1.0170001 2.3402269e-38
-0.15012857 0.12494572 1.0170001 2.3403704e-38
-0.1477543 0.12457716 1.0140001 2.3404064e-38
-0.1462543 0.12494572 1.0170001 2.3404422e-38
-0.14474286 0.1253143 1.0200001 2.3404421e-38
-0.14280002 0.1253143 1.0200001 2.3402627e-38
-0.14085715 0.1253143 1.0200001 2.3402986e-38
-0.13932286 0.12568285 1.023 2.3403346e-38
-0.13777713 0.12605143 1.026 2.3400476e-38
-0.13439049 0.12654287 1.0300001 2.3397632e-38
-0.13242859 0.12654287 1.0300001 2.3395503e-38
-0.13084666 0.12691143 1.033 2.339552e-38
-0.12887904 0.12691143 1.033 2.2660853e-38
-0.19274572 0.12688287 1.0170001 2.2294691e-38
-0.19080858 0.12688287 1.0170001 2.2201035e-38
-0.18887144 0.12688287 1.0170001 2.2476515e-38
-0.18638286 0.12650858 1.0140001 2.2752316e-38
-0.18445143 0.12650858 1.0140001 2.3029553e-38
-0.18252 0.12650858 1.0140001 2.3400121e-38
-0.18058857 0.12650858 1.0140001 2.339976e-38
-0.17865716 0.12650858 1.0140001 2.33994e-38
-0.17620285 0.12613429 1.011 2.3400476e-38
-0.17427716 0.12613429 1.011 2.3400475e-38
-0.17235143 0.12613429 1.011 2.3400475e-38
-0.17042571 0.12613429 1.011 2.3401553e-38
-0.16850001 0.12613429 1.011 2.3401914e-38
-0.16657428 0.12613429 1.011 2.3401911e-38
-0.16464858 0.12613429 1.011 2.3402269e-38
-0.16272287 0.12613429 1.011 2.340299e-38
-0.16079715 0.12613429 1.011 2.3401918e-38
-0.15887143 0.12613429 1.011 2.3401914e-38
-0.15694571 0.12613429 1.011 2.340227e-38
-0.15548001 0.12650858 1.0140001 2.3402627e-38
-0.15354858 0.12650858 1.0140001 2.340191e-38
-0.15161715 0.12650858 1.0140001 2.340191e-38
-0.15012857 0.12688287 1.0170001 2.3403346e-38
-0.1477543 0.12650858 1.0140001 2.3409446e-38
-0.1462543 0.12688287 1.0170001 2.3403708e-38
-0.14474286 0.12725715 1.0200001 2.340514e-38
-0.14280002 0.12725715 1.0200001 2.3402627e-38
-0.14085715 0.12725715 1.0200001 2.3402986e-38
-0.1389143 0.12725715 1.0200001 2.3401553e-38
-0.13737428 0.12763143 1.023 2.3398683e-38
-0.13582285 0.12800571 1.026 2.3397967e-38
-0.13386856 0.12800571 1.026 2.3397276e-38
-0.13191429 0.12800571 1.026 2.3394433e-38
-0.12996 0.12800571 1.026 2.339479e-38
-0.12800571 0.12800571 1.026 2.2751941e-38
-0.19274572 0.12882002 1.0170001 2.2111016e-38
-0.19080858 0.12882002 1.0170001 2.1835127e-38
-0.18887144 0.12882002 1.0170001 2.2293921e-38
-0.18693431 0.12882002 1.0170001 2.2844508e-38
-0.18499716 0.12882002 1.0170001 2.3119949e-38
-0.18306001 0.12882002 1.0170001 2.3400478e-38
-0.18058857 0.12844001 1.0140001 2.3399402e-38
-0.17865716 0.12844001 1.0140001 2.3399042e-38
-0.17672573 0.12844001 1.0140001 2.3400475e-38
-0.1747943 0.12844001 1.0140001 2.3400475e-38
-0.17235143 0.12806 1.011 2.3400475e-38
-0.17093144 0.12844001 1.0140001 2.3401192e-38
-0.16850001 0.12806 1.011 2.3401911e-38
-0.16657428 0.12806 1.011 2.340191e-38
-0.16513716 0.12844001 1.0140001 2.340191e-38
-0.16320573 0.12844001 1.0140001 2.3401911e-38
-0.16079715 0.12806 1.011 2.3402273e-38
-0.15887143 0.12806 1.011 2.3402271e-38
-0.15741144 0.12844001 1.0140001 2.340227e-38
-0.15548001 0.12844001 1.0140001 2.3402627e-38
-0.15354858 0.12844001 1.0140001 2.3401551e-38
-0.15161715 0.12844001 1.0140001 2.3402269e-38
-0.15012857 0.12882002 1.0170001 2.3402986e-38
-0.14819144 0.12882002 1.0170001 2.3402988e-38
-0.1462543 0.12882002 1.0170001 2.3403348e-38
-0.14474286 0.12920001 1.0200001 2.3402989e-38
-0.14280002 0.12920001 1.0200001 2.340263e-38
-0.14127143 0.12958001 1.023 2.3401911e-38
-0.13932286 0.12958001 1.023 2.3399759e-38
-0.13777713 0.12996 1.026 2.3397967e-38
-0.13582285 0.12996 1.026 2.3397249e-38
-0.13386856 0.12996 1.026 2.3397281e-38
-0.13191429 0.12996 1.026 2.3393366e-38
-0.12996 0.12996 1.026 2.3395523e-38
-0.12800571 0.12996 1.026 2.2844873e-38
-0.19331431 0.13114287 1.0200001 2.2294324e-38
-0.19137144 0.13114287 1.0200001 2.2110273e-38
-0.1894286 0.13114287 1.0200001 2.2385758e-38
-0.18693431 0.13075715 1.0170001 2.2752673e-38
-0.18499716 0.13075715 1.0170001 2.302847e-38
-0.18306001 0.13075715 1.0170001 2.3400835e-38
-0.18112287 0.13075715 1.0170001 2.339976e-38
-0.17865716 0.13037144 1.0140001 2.3399042e-38
-0.17672573 0.13037144 1.0140001 2.3400834e-38
-0.1747943 0.13037144 1.0140001 2.3401192e-38
-0.17286287 0.13037144 1.0140001 2.3400475e-38
-0.17093144 0.13037144 1.0140001 2.3400834e-38
-0.16900001 0.13037144 1.0140001 2.340191e-38
-0.16706859 0.13037144 1.0140001 2.3401192e-38
-0.16513716 0.13037144 1.0140001 2.3400834e-38
-0.16320573 0.13037144 1.0140001 2.3400834e-38
-0.1612743 0.13037144 1.0140001 2.3401192e-38
-0.15934287 0.13037144 1.0140001 2.3401551e-38
-0.15741144 0.13037144 1.0140001 2.3401911e-38
-0.15548001 0.13037144 1.0140001 2.3402629e-38
-0.15354858 0.13037144 1.0140001 2.3402629e-38
-0.15206572 0.13075715 1.0170001 2.3402627e-38
-0.15012857 0.13075715 1.0170001 2.3402986e-38
-0.14819144 0.13075715 1.0170001 2.3403705e-38
-0.14668573 0.13114287 1.0200001 2.3403348e-38
-0.14516857 0.13152857 1.023 2.340299e-38
-0.14280002 0.13114287 1.0200001 2.3401916e-38
-0.14127143 0.13152857 1.023 2.3401197e-38
-0.13932286 0.13152857 1.023 2.3398325e-38
-0.13777713 0.13191429 1.026 2.3397608e-38
-0.13582285 0.13191429 1.026 2.3397251e-38
-0.13386856 0.13191429 1.026 2.3397287e-38
-0.13191429 0.13191429 1.026 2.3305129e-38
-0.12996 0.13191429 1.026 2.3212943e-38
-0.12800571 0.13191429 1.026 2.2845251e-38
-0.19331431 0.13308573 1.0200001 2.2477997e-38
-0.19137144 0.13308573 1.0200001 2.2386145e-38
-0.1894286 0.13308573 1.0200001 2.2477964e-38
-0.18693431 0.13269429 1.0170001 2.2661576e-38
-0.18499716 0.13269429 1.0170001 2.3028858e-38
-0.18360001 0.13308573 1.0200001 2.340049e-38
-0.18112287 0.13269429 1.0170001 2.3400118e-38
-0.17918573 0.13269429 1.0170001 2.3400116e-38
-0.17672573 0.13230287 1.0140001 2.3401192e-38
-0.1747943 0.13230287 1.0140001 2.3400475e-38
-0.17286287 0.13230287 1.0140001 2.3400116e-38
-0.17093144 0.13230287 1.0140001 2.3400834e-38
-0.16900001 0.13230287 1.0140001 2.3401911e-38
-0.16706859 0.13230287 1.0140001 2.3401192e-38
-0.16513716 0.13230287 1.0140001 2.3397964e-38
-0.16320573 0.13230287 1.0140001 2.3400475e-38
-0.1612743 0.13230287 1.0140001 2.3401192e-38
-0.15934287 0.13230287 1.0140001 2.3400835e-38
-0.15741144 0.13230287 1.0140001 2.3400476e-38
-0.15548001 0.13230287 1.0140001 2.3401911e-38
-0.15400288 0.13269429 1.0170001 2.3402269e-38
-0.15206572 0.13269429 1.0170001 2.3400834e-38
-0.15057145 0.13308573 1.0200001 2.339617e-38
-0.14862858 0.13308573 1.0200001 2.3396529e-38
-0.14668573 0.13308573 1.0200001 2.3397248e-38
-0.14516857 0.13347714 1.023 2.3396889e-38
-0.14321999 0.13347714 1.023 2.3396891e-38
-0.14127143 0.13347714 1.023 2.3396889e-38
-0.13932286 0.13347714 1.023 2.3396889e-38
-0.13777713 0.13386856 1.026 2.3396889e-38
-0.13582285 0.13386856 1.026 2.3398683e-38
-0.13386856 0.13386856 1.026 2.3398353e-38
-0.13191429 0.13386856 1.026 2.3214353e-38
-0.12996 0.13386856 1.026 2.3029261e-38
-0.12800571 0.13386856 1.026 2.2845246e-38
-0.19388285 0.13542572 1.023 2.2294329e-38
-0.19137144 0.13502859 1.0200001 2.2109211e-38
-0.1894286 0.13502859 1.0200001 2.2477976e-38
-0.18748572 0.13502859 1.0200001 2.2937462e-38
-0.18554288 0.13502859 1.0200001 2.3121441e-38
-0.18360001 0.13502859 1.0200001 2.3400506e-38
-0.18112287 0.13463144 1.0170001 2.3400118e-38
-0.17918573 0.13463144 1.0170001 2.3400116e-38
-0.17724858 0.13463144 1.0170001 2.3400116e-38
-0.1747943 0.13423429 1.0140001 2.3400116e-38
-0.17286287 0.13423429 1.0140001 2.3400118e-38
-0.17093144 0.13423429 1.0140001 2.3400835e-38
-0.16900001 0.13423429 1.0140001 2.3401195e-38
-0.16706859 0.13423429 1.0140001 2.3401553e-38
-0.16513716 0.13423429 1.0140001 2.3399758e-38
-0.16320573 0.13423429 1.0140001 2.3400116e-38
-0.1612743 0.13423429 1.0140001 2.3400118e-38
-0.15934287 0.13423429 1.0140001 2.3400118e-38
-0.15741144 0.13423429 1.0140001 2.3400478e-38
-0.15548001 0.13423429 1.0140001 2.3401194e-38
-0.15400288 0.13463144 1.0170001 2.3400116e-38
-0.15206572 0.13463144 1.0170001 2.3399399e-38
-0.15057145 0.13502859 1.0200001 2.3395094e-38
-0.14862858 0.13502859 1.0200001 2.3396888e-38
-0.14711715 0.13542572 1.023 2.3397605e-38
-0.14516857 0.13542572 1.023 2.3394735e-38
-0.14321999 0.13542572 1.023 2.3211064e-38
-0.14127143 0.13542572 1.023 2.3119229e-38
-0.13932286 0.13542572 1.023 2.3211782e-38
-0.13777713 0.13582285 1.026 2.339617e-38
-0.13582285 0.13582285 1.026 2.3397964e-38
-0.13386856 0.13582285 1.026 2.339978e-38
-0.13191429 0.13582285 1.026 2.3121067e-38
-0.12996 0.13582285 1.026 2.2937416e-38
-0.12800571 0.13582285 1.026 2.2752688e-38
-0.19388285 0.13737428 1.023 2.2202851e-38
-0.19193429 0.13737428 1.023 2.1833701e-38
-0.18998571 0.13737428 1.023 2.2477972e-38
-0.18748572 0.13697143 1.0200001 2.3212593e-38
-0.18608858 0.13737428 1.023 2.3305801e-38
-0.18414 0.13737428 1.023 2.3399414e-38
-0.18165717 0.13697143 1.0200001 2.3399758e-38
-0.17918573 0.13656859 1.0170001 2.3399399e-38
-0.17724858 0.13656859 1.0170001 2.3399399e-38
-0.17531143 0.13656859 1.0170001 2.3399758e-38
-0.1733743 0.13656859 1.0170001 2.3400118e-38
-0.17143716 0.13656859 1.0170001 2.3400476e-38
-0.16900001 0.13616572 1.0140001 2.3400835e-38
-0.16756286 0.13656859 1.0170001 2.3400116e-38
-0.16562572 0.13656859 1.0170001 2.3399399e-38
-0.16368859 0.13656859 1.0170001 2.3399399e-38
-0.1612743 0.13616572 1.0140001 2.3399758e-38
-0.15934287 0.13616572 1.0140001 2.3399399e-38
-0.15741144 0.13616572 1.0140001 2.3401911e-38
-0.15548001 0.13616572 1.0140001 2.3400475e-38
-0.15400288 0.13656859 1.0170001 2.3399399e-38
-0.15206572 0.13656859 1.0170001 2.3397964e-38
-0.15057145 0.13697143 1.0200001 2.3394018e-38
-0.14862858 0.13697143 1.0200001 2.3397608e-38
-0.14711715 0.13737428 1.023 2.339797e-38
-0.14516857 0.13737428 1.023 2.3396173e-38
-0.14321999 0.13737428 1.023 2.3119229e-38
-0.14127143 0.13737428 1.023 2.2935199e-38
-0.13973142 0.13777713 1.026 2.311887e-38
-0.13777713 0.13777713 1.026 2.3394377e-38
-0.13635239 0.13831429 1.0300001 2.3394735e-38
-0.13439049 0.13831429 1.0300001 2.3395107e-38
-0.13242859 0.13831429 1.0300001 2.3119972e-38
-0.13046667 0.13831429 1.0300001 2.2845211e-38
-0.19388285 0.13932286 1.023 2.2294326e-38
-0.19193429 0.13932286 1.023 2.201737e-38
-0.18998571 0.13932286 1.023 2.2477251e-38
-0.18803714 0.13932286 1.023 2.293707e-38
-0.18608858 0.13932286 1.023 2.3121741e-38
-0.18414 0.13932286 1.023 2.3398681e-38
-0.18165717 0.1389143 1.0200001 2.339904e-38
-0.17971429 0.1389143 1.0200001 2.3399399e-38
-0.17724858 0.13850573 1.0170001 2.339904e-38
-0.17531143 0.13850573 1.0170001 2.3398681e-38
-0.1733743 0.13850573 1.0170001 2.3400118e-38
-0.17143716 0.13850573 1.0170001 2.3400475e-38
-0.16950002 0.13850573 1.0170001 2.3400116e-38
-0.16756286 0.13850573 1.0170001 2.3399758e-38
-0.16562572 0.13850573 1.0170001 2.3399758e-38
-0.16368859 0.13850573 1.0170001 2.3398681e-38
-0.16175145 0.13850573 1.0170001 2.3398681e-38
-0.15934287 0.13809715 1.0140001 2.339904e-38
-0.15741144 0.13809715 1.0140001 2.3399399e-38
-0.15548001 0.13809715 1.0140001 2.3400116e-38
-0.15400288 0.13850573 1.0170001 2.3397605e-38
-0.15206572 0.13850573 1.0170001 2.3396529e-38
-0.15057145 0.1389143 1.0200001 2.330577e-38
-0.14862858 0.1389143 1.0200001 2.3306851e-38
-0.14711715 0.13932286 1.023 2.3305424e-38
-0.14516857 0.13932286 1.023 2.3400839e-38
-0.14321999 0.13932286 1.023 2.3211064e-38
-0.14127143 0.13932286 1.023 2.3117794e-38
-0.13973142 0.13973142 1.026 2.3211064e-38
-0.13777713 0.13973142 1.026 2.3395453e-38
-0.13635239 0.14027619 1.0300001 2.3395453e-38
-0.13439049 0.14027619 1.0300001 2.3395456e-38
-0.13242859 0.14027619 1.0300001 2.3120311e-38
-0.13084666 0.14068475 1.033 2.2845199e-38
-0.19249715 0.14168572 1.026 2.2292885e-38
-0.19054286 0.14168572 1.026 2.2476909e-38
-0.18858857 0.14168572 1.026 2.2661936e-38
-0.18663429 0.14168572 1.026 2.3029918e-38
-0.18468 0.14168572 1.026 2.3397971e-38
-0.18219142 0.14127143 1.023 2.339904e-38
-0.18024287 0.14127143 1.023 2.3398681e-38
-0.17777145 0.14085715 1.0200001 2.3398681e-38
-0.17582859 0.14085715 1.0200001 2.3399399e-38
-0.1733743 0.14044286 1.0170001 2.3400118e-38
-0.17143716 0.14044286 1.0170001 2.3400116e-38
-0.16950002 0.14044286 1.0170001 2.3400116e-38
-0.16756286 0.14044286 1.0170001 2.3400116e-38
-0.16562572 0.14044286 1.0170001 2.3400116e-38
-0.16368859 0.14044286 1.0170001 2.3399399e-38
-0.16175145 0.14044286 1.0170001 2.3398681e-38
-0.1598143 0.14044286 1.0170001 2.339904e-38
-0.15741144 0.14002858 1.0140001 2.3399399e-38
-0.15548001 0.14002858 1.0140001 2.3399758e-38
-0.15400288 0.14044286 1.0170001 2.339617e-38
-0.15206572 0.14044286 1.0170001 2.3396529e-38
-0.15057145 0.14085715 1.0200001 2.3306128e-38
-0.14862858 0.14085715 1.0200001 2.3305772e-38
-0.14711715 0.14127143 1.023 2.3305058e-38
-0.14516857 0.14127143 1.023 2.3395814e-38
-0.14321999 0.14127143 1.023 2.3303259e-38
-0.14168572 0.14168572 1.026 2.3303259e-38
-0.13973142 0.14168572 1.026 2.3303617e-38
-0.13831429 0.1422381 1.0300001 2.3395094e-38
-0.13635239 0.1422381 1.0300001 2.3395094e-38
-0.13439049 0.1422381 1.0300001 2.3395819e-38
-0.13242859 0.1422381 1.0300001 2.3121038e-38
-0.13046667 0.1422381 1.0300001 2.2844846e-38
-0.12850477 0.1422381 1.0300001 2.2749816e-38
-0.19054286 0.14364001 1.026 2.2294332e-38
-0.18858857 0.14364001 1.026 2.2478998e-38
-0.18663429 0.14364001 1.026 2.2938096e-38
-0.18468 0.14364001 1.026 2.3397618e-38
-0.18219142 0.14321999 1.023 2.3398681e-38
-0.18024287 0.14321999 1.023 2.3400116e-38
-0.17829429 0.14321999 1.023 2.3400475e-38
-0.17582859 0.14280002 1.0200001 2.3400834e-38
-0.17388573 0.14280002 1.0200001 2.3400476e-38
-0.17194287 0.14280002 1.0200001 2.3400476e-38
-0.16950002 0.14238 1.0170001 2.3400476e-38
-0.16756286 0.14238 1.0170001 2.3400476e-38
-0.16562572 0.14238 1.0170001 2.3400118e-38
-0.16368859 0.14238 1.0170001 2.3400116e-38
-0.16175145 0.14238 1.0170001 2.3399758e-38
-0.1598143 0.14238 1.0170001 2.3399758e-38
-0.15787715 0.14238 1.0170001 2.3399758e-38
-0.15594001 0.14238 1.0170001 2.3399758e-38
-0.15400288 0.14238 1.0170001 2.3396529e-38
-0.15206572 0.14238 1.0170001 2.3396529e-38
-0.15057145 0.14280002 1.0200001 2.3305052e-38
-0.1490657 0.14321999 1.023 2.330577e-38
-0.14711715 0.14321999 1.023 2.330577e-38
-0.14516857 0.14321999 1.023 2.3397605e-38
-0.14364001 0.14364001 1.026 2.3304693e-38
-0.14168572 0.14364001 1.026 2.3303976e-38
-0.13973142 0.14364001 1.026 2.3304335e-38
-0.13831429 0.14420001 1.0300001 2.3396888e-38
-0.13635239 0.14420001 1.0300001 2.3397248e-38
-0.13439049 0.14420001 1.0300001 2.3397618e-38
-0.13242859 0.14420001 1.0300001 2.3028495e-38
-0.13046667 0.14420001 1.0300001 2.2752659e-38
-0.18932383 0.14616191 1.0300001 2.2387538e-38
-0.18736191 0.14616191 1.0300001 2.2847017e-38
-0.18468 0.1455943 1.026 2.3398355e-38
-0.18272571 0.1455943 1.026 2.3398681e-38
-0.18077143 0.1455943 1.026 2.3400475e-38
-0.17881715 0.1455943 1.026 2.3400475e-38
-0.17634571 0.14516857 1.023 2.3400475e-38
-0.17388573 0.14474286 1.0200001 2.3400475e-38
-0.17194287 0.14474286 1.0200001 2.3400475e-38
-0.17000002 0.14474286 1.0200001 2.3400476e-38
-0.16805716 0.14474286 1.0200001 2.3400835e-38
-0.1661143 0.14474286 1.0200001 2.3401194e-38
-0.16368859 0.14431715 1.0170001 2.3401192e-38
-0.16175145 0.14431715 1.0170001 2.3401192e-38
-0.1598143 0.14431715 1.0170001 2.3400475e-38
-0.15787715 0.14431715 1.0170001 2.3399758e-38
-0.15594001 0.14431715 1.0170001 2.3400475e-38
-0.15445717 0.14474286 1.0200001 2.3396888e-38
-0.15296286 0.14516857 1.023 2.3396529e-38
-0.15101428 0.14516857 1.023 2.3396529e-38
-0.1490657 0.14516857 1.023 2.3397964e-38
-0.14711715 0.14516857 1.023 2.3397964e-38
-0.1455943 0.1455943 1.026 2.3397605e-38
-0.14364001 0.1455943 1.026 2.3397605e-38
