# .PCD v0.7 - Point Cloud Data file format
VERSION 0.7
FIELDS x y z rgb
SIZE 4 4 4 4
TYPE F F F F
COUNT 1 1 1 1
WIDTH 1020
HEIGHT 1
VIEWPOINT 0 0 0 1 0 0 0
POINTS 1020
DATA ascii
-0.73291147 -0.23098573 1.3110001 9.1121913e-39
-0.73320001 -0.23186669 1.3160001 9.2962238e-39
-0.73346961 -0.23274764 1.3210001 9.5699409e-39
-0.73372006 -0.23362859 1.3260001 9.8458145e-39
-0.73395145 -0.23450954 1.3310001 9.6621519e-39
-0.73746091 -0.23644762 1.342 9.4788382e-39
-0.73764294 -0.23732859 1.3470001 9.2948085e-39
-0.74380857 -0.24014764 1.363 9.1111263e-39
-0.74393141 -0.24102858 1.368 9.1103976e-39
-0.74457717 -0.24208573 1.3740001 9.2018716e-39
-0.74196005 -0.24208573 1.3740001 8.7426913e-39
-0.74203336 -0.24296667 1.3790001 8.3753437e-39
-0.74262387 -0.24402381 1.3850001 8.5586504e-39
-0.73998576 -0.24402381 1.3850001 8.8341681e-39
-0.73734772 -0.24402381 1.3850001 9.0182104e-39
-0.7405448 -0.2459619 1.396 9.2011695e-39
-0.74105716 -0.24701907 1.4020001 9.0175042e-39
-0.73838669 -0.24701907 1.4020001 8.833843e-39
-0.73834002 -0.24790001 1.4070001 8.8352877e-39
-0.73879719 -0.24895717 1.4130001 8.8374555e-39
-0.7427572 -0.25212857 1.4310001 8.653416e-39
-0.74658006 -0.25530002 1.4490001 8.9270938e-39
-0.74382001 -0.25530002 1.4490001 8.9274427e-39
-0.74412858 -0.25635716 1.455 8.9274301e-39
-0.74441433 -0.25741428 1.4610001 9.0206893e-39
-0.74467719 -0.25847146 1.4670001 9.2061722e-39
-0.74188292 -0.25847146 1.4670001 9.2047569e-39
-0.74211144 -0.25952858 1.473 9.2954951e-39
-0.74281907 -0.26076192 1.48 9.9379653e-39
-0.73275906 -0.2760905 1.567 1.9895106e-38
-0.7297743 -0.2760905 1.567 1.9895822e-38
-0.72678953 -0.2760905 1.567 1.9895821e-38
-0.72380477 -0.2760905 1.567 1.998765e-38
-0.72082001 -0.2760905 1.567 2.0171317e-38
-0.71783525 -0.2760905 1.567 2.0354997e-38
-0.4272286 -0.27732384 1.5740001 2.3404634e-38
-0.42423052 -0.27732384 1.5740001 2.3400688e-38
-0.4212324 -0.27732384 1.5740001 2.3400684e-38
-0.41823432 -0.27732384 1.5740001 2.3400681e-38
-0.41523623 -0.27732384 1.5740001 2.340068e-38
-0.41223812 -0.27732384 1.5740001 2.3401037e-38
-0.40924001 -0.27732384 1.5740001 2.3401037e-38
-0.40624195 -0.27732384 1.5740001 2.3401396e-38
-0.40324384 -0.27732384 1.5740001 2.3401752e-38
-0.40024573 -0.27732384 1.5740001 2.3401749e-38
-0.39724767 -0.27732384 1.5740001 2.3403188e-38
-0.39424956 -0.27732384 1.5740001 2.3402835e-38
-0.39125144 -0.27732384 1.5740001 2.3403192e-38
-0.38825336 -0.27732384 1.5740001 2.3403192e-38
-0.38525528 -0.27732384 1.5740001 2.3403538e-38
-0.38225716 -0.27732384 1.5740001 2.3402808e-38
-0.37925905 -0.27732384 1.5740001 2.3402461e-38
-0.376261 -0.27732384 1.5740001 2.3402473e-38
-0.37326288 -0.27732384 1.5740001 2.3402477e-38
-0.3642686 -0.27732384 1.5740001 2.3403191e-38
-0.36127049 -0.27732384 1.5740001 2.3403182e-38
-0.3582724 -0.27732384 1.5740001 2.3403175e-38
-0.35527432 -0.27732384 1.5740001 2.3402824e-38
-0.35227621 -0.27732384 1.5740001 2.3402831e-38
-0.34927812 -0.27732384 1.5740001 2.3403908e-38
-0.34628001 -0.27732384 1.5740001 2.3403194e-38
-0.34328192 -0.27732384 1.5740001 2.3403196e-38
-0.34028384 -0.27732384 1.5740001 2.3403199e-38
-0.33728573 -0.27732384 1.5740001 2.3403198e-38
-0.33128956 -0.27732384 1.5740001 2.3403915e-38
-0.32529333 -0.27732384 1.5740001 2.3403565e-38
-0.32229528 -0.27732384 1.5740001 2.3403572e-38
-0.31929716 -0.27732384 1.5740001 2.3403563e-38
-0.31629905 -0.27732384 1.5740001 2.3403915e-38
-0.31330097 -0.27732384 1.5740001 2.3404275e-38
-0.31030288 -0.27732384 1.5740001 2.3403919e-38
-0.30730477 -0.27732384 1.5740001 2.3403198e-38
-0.30430669 -0.27732384 1.5740001 2.340463e-38
-0.29996857 -0.2760905 1.567 2.3404991e-38
-0.29831049 -0.27732384 1.5740001 2.3403559e-38
-0.2953124 -0.27732384 1.5740001 2.3403561e-38
-0.29231429 -0.27732384 1.5740001 2.3404281e-38
-0.28931621 -0.27732384 1.5740001 2.3405352e-38
-0.28631812 -0.27732384 1.5740001 2.3405347e-38
-0.28332001 -0.27732384 1.5740001 2.340535e-38
-0.28032193 -0.27732384 1.5740001 2.3404996e-38
-0.27732384 -0.27732384 1.5740001 2.3404991e-38
-0.27432573 -0.27732384 1.5740001 2.3404989e-38
-0.27012095 -0.2760905 1.567 2.3404994e-38
-0.26713619 -0.2760905 1.567 2.3403925e-38
-0.26415142 -0.2760905 1.567 2.3404282e-38
-0.26233333 -0.27732384 1.5740001 2.340464e-38
-0.25933528 -0.27732384 1.5740001 2.3404993e-38
-0.25633717 -0.27732384 1.5740001 2.3404989e-38
-0.25333905 -0.27732384 1.5740001 2.340499e-38
-0.25034097 -0.27732384 1.5740001 2.340535e-38
-0.24624285 -0.2760905 1.567 2.3405706e-38
-0.2432581 -0.2760905 1.567 2.3405346e-38
-0.24027333 -0.2760905 1.567 2.3405347e-38
-0.23728856 -0.2760905 1.567 2.3404274e-38
-0.23430382 -0.2760905 1.567 2.3403184e-38
-0.23131905 -0.2760905 1.567 2.3403528e-38
-0.22833429 -0.2760905 1.567 2.3403898e-38
-0.22534953 -0.2760905 1.567 2.3406062e-38
-0.22236477 -0.2760905 1.567 2.3407501e-38
-0.21937999 -0.2760905 1.567 2.3406429e-38
-0.21436383 -0.27732384 1.5740001 2.3405752e-38
-0.21136573 -0.27732384 1.5740001 2.3405723e-38
-0.20836763 -0.27732384 1.5740001 2.3405693e-38
-0.20147142 -0.2760905 1.567 2.3405352e-38
-0.19848667 -0.2760905 1.567 2.3405004e-38
-0.19550191 -0.2760905 1.567 2.3405017e-38
-0.19251715 -0.2760905 1.567 2.340501e-38
-0.19037905 -0.27732384 1.5740001 2.3405003e-38
-0.18738097 -0.27732384 1.5740001 2.3405371e-38
-0.18438287 -0.27732384 1.5740001 2.3406098e-38
-0.18138477 -0.27732384 1.5740001 2.3406446e-38
-0.17759334 -0.2760905 1.567 2.3405719e-38
-0.17460857 -0.2760905 1.567 2.3405347e-38
-0.17162381 -0.2760905 1.567 2.3406054e-38
-0.16863905 -0.2760905 1.567 2.3406066e-38
-0.16565429 -0.2760905 1.567 2.3405363e-38
-0.16266952 -0.2760905 1.567 2.3405364e-38
-0.15968476 -0.2760905 1.567 2.3406443e-38
-0.1567 -0.2760905 1.567 2.3406433e-38
-0.15371524 -0.2760905 1.567 2.3404989e-38
-0.15073048 -0.2760905 1.567 2.3405714e-38
-0.14774571 -0.2760905 1.567 2.3405723e-38
-0.14476095 -0.2760905 1.567 2.3406094e-38
-0.14177619 -0.2760905 1.567 2.3406108e-38
-0.13879143 -0.2760905 1.567 2.3406453e-38
-0.13580666 -0.2760905 1.567 2.340644e-38
-0.1328219 -0.2760905 1.567 2.3406445e-38
-0.12983716 -0.2760905 1.567 2.3406808e-38
-0.12685239 -0.2760905 1.567 2.3407161e-38
-0.12386762 -0.2760905 1.567 2.3406796e-38
-0.12088286 -0.2760905 1.567 2.3406799e-38
-0.11789809 -0.2760905 1.567 2.3406445e-38
-0.11491334 -0.2760905 1.567 2.3406087e-38
-0.11192857 -0.2760905 1.567 2.3406449e-38
-0.10894381 -0.2760905 1.567 2.3406803e-38
-0.10595905 -0.2760905 1.567 2.3406799e-38
-0.10297429 -0.2760905 1.567 2.3407536e-38
-0.099989519 -0.2760905 1.567 2.3408275e-38
-0.097004764 -0.2760905 1.567 2.3410766e-38
-0.094020002 -0.2760905 1.567 2.3407518e-38
-0.091035239 -0.2760905 1.567 2.3407156e-38
-0.088050477 -0.2760905 1.567 2.3407155e-38
-0.085065715 -0.2760905 1.567 2.3407137e-38
-0.082080953 -0.2760905 1.567 2.3407119e-38
-0.079096191 -0.2760905 1.567 2.3407134e-38
-0.076111428 -0.2760905 1.567 2.3406792e-38
-0.073126674 -0.2760905 1.567 2.3406076e-38
-0.070141904 -0.2760905 1.567 2.3406795e-38
-0.067457147 -0.27732384 1.5740001 2.3406806e-38
-0.064459056 -0.27732384 1.5740001 2.3406819e-38
-0.061460957 -0.27732384 1.5740001 2.3406812e-38
-0.058462862 -0.27732384 1.5740001 2.3407165e-38
-0.055464763 -0.27732384 1.5740001 2.3407888e-38
-0.052466668 -0.27732384 1.5740001 2.3408254e-38
-0.046470478 -0.27732384 1.5740001 2.3408234e-38
-0.043472383 -0.27732384 1.5740001 2.3407891e-38
-0.040294286 -0.2760905 1.567 2.340683e-38
-0.037309524 -0.2760905 1.567 2.3406103e-38
-0.034324761 -0.2760905 1.567 2.3407169e-38
-0.031339999 -0.2760905 1.567 2.3407172e-38
-0.028355239 -0.2760905 1.567 2.3407175e-38
-0.025370477 -0.2760905 1.567 2.3407168e-38
-0.022385715 -0.2760905 1.567 2.3407519e-38
-0.019400952 -0.2760905 1.567 2.3407517e-38
-0.01641619 -0.2760905 1.567 2.3407874e-38
-0.013431429 -0.2760905 1.567 2.3407875e-38
-0.010493333 -0.27732384 1.5740001 2.3407519e-38
-0.0074952389 -0.27732384 1.5740001 2.3407529e-38
-0.004497143 -0.27732384 1.5740001 2.340754e-38
-0.0014990477 -0.27732384 1.5740001 2.3407875e-38
0.0014990477 -0.27732384 1.5740001 2.3407851e-38
0.004497143 -0.27732384 1.5740001 2.3408577e-38
0.0074952389 -0.27732384 1.5740001 2.3408228e-38
0.010493333 -0.27732384 1.5740001 2.3408228e-38
0.013491429 -0.27732384 1.5740001 2.3408587e-38
0.016489524 -0.27732384 1.5740001 2.3408946e-38
0.019487621 -0.27732384 1.5740001 2.3408589e-38
0.022385715 -0.2760905 1.567 2.3408589e-38
0.025370477 -0.2760905 1.567 2.340823e-38
0.028481906 -0.27732384 1.5740001 2.340896e-38
0.031479999 -0.27732384 1.5740001 2.3409333e-38
0.037476193 -0.27732384 1.5740001 2.3409306e-38
0.040474288 -0.27732384 1.5740001 2.3409313e-38
0.043472383 -0.27732384 1.5740001 2.3408244e-38
0.046470478 -0.27732384 1.5740001 2.3407881e-38
0.049468577 -0.27732384 1.5740001 2.3408237e-38
0.052466668 -0.27732384 1.5740001 2.3408234e-38
0.070455238 -0.27732384 1.5740001 2.3408591e-38
0.073453337 -0.27732384 1.5740001 2.3407872e-38
0.076451436 -0.27732384 1.5740001 2.3407878e-38
0.079449527 -0.27732384 1.5740001 2.3407885e-38
0.082447626 -0.27732384 1.5740001 2.3408254e-38
0.085445724 -0.27732384 1.5740001 2.3407905e-38
0.088443816 -0.27732384 1.5740001 2.3407175e-38
0.091441914 -0.27732384 1.5740001 2.3407521e-38
0.1004362 -0.27732384 1.5740001 2.3406799e-38
0.13941143 -0.27732384 1.5740001 2.3407515e-38
0.14240953 -0.27732384 1.5740001 2.3407511e-38
0.14540763 -0.27732384 1.5740001 2.3407507e-38
0.14840573 -0.27732384 1.5740001 2.3407494e-38
0.15140381 -0.27732384 1.5740001 2.3407482e-38
0.15440191 -0.27732384 1.5740001 2.3407854e-38
0.15740001 -0.27732384 1.5740001 2.3408228e-38
0.16039811 -0.27732384 1.5740001 2.3408227e-38
0.16339619 -0.27732384 1.5740001 2.3408227e-38
0.16639431 -0.27732384 1.5740001 2.3408228e-38
0.16939239 -0.27732384 1.5740001 2.3407514e-38
0.17239049 -0.27732384 1.5740001 2.3407526e-38
0.17538859 -0.27732384 1.5740001 2.3406822e-38
0.17838667 -0.27732384 1.5740001 2.3407154e-38
0.18138477 -0.27732384 1.5740001 2.3407487e-38
0.18438287 -0.27732384 1.5740001 2.3407856e-38
0.18738097 -0.27732384 1.5740001 2.3407867e-38
0.19037905 -0.27732384 1.5740001 2.3407867e-38
0.19337717 -0.27732384 1.5740001 2.3408227e-38
0.22335811 -0.27732384 1.5740001 2.3406438e-38
0.22635619 -0.27732384 1.5740001 2.34068e-38
0.22935431 -0.27732384 1.5740001 2.3406806e-38
0.23235239 -0.27732384 1.5740001 2.3406803e-38
0.23535049 -0.27732384 1.5740001 2.34068e-38
0.23834859 -0.27732384 1.5740001 2.3406795e-38
0.24134669 -0.27732384 1.5740001 2.3406791e-38
0.24434477 -0.27732384 1.5740001 2.3406786e-38
0.24734287 -0.27732384 1.5740001 2.3406065e-38
0.25034097 -0.27732384 1.5740001 2.3406069e-38
0.25333905 -0.27732384 1.5740001 2.3406075e-38
0.25633717 -0.27732384 1.5740001 2.3406072e-38
0.25933528 -0.27732384 1.5740001 2.3406429e-38
0.26233333 -0.27732384 1.5740001 2.3407867e-38
0.26533145 -0.27732384 1.5740001 2.3406793e-38
0.26832956 -0.27732384 1.5740001 2.3407148e-38
0.27132761 -0.27732384 1.5740001 2.3406785e-38
0.27432573 -0.27732384 1.5740001 2.3406429e-38
0.27732384 -0.27732384 1.5740001 2.3406073e-38
0.28032193 -0.27732384 1.5740001 2.3406446e-38
0.28332001 -0.27732384 1.5740001 2.3405743e-38
0.28631812 -0.27732384 1.5740001 2.3405015e-38
0.28931621 -0.27732384 1.5740001 2.3405005e-38
0.29231429 -0.27732384 1.5740001 2.3405361e-38
0.2953124 -0.27732384 1.5740001 2.3405e-38
0.29831049 -0.27732384 1.5740001 2.3405349e-38
0.3013086 -0.27732384 1.5740001 2.340534e-38
0.30430669 -0.27732384 1.5740001 2.3405702e-38
0.30730477 -0.27732384 1.5740001 2.3405705e-38
0.31030288 -0.27732384 1.5740001 2.3405696e-38
0.31330097 -0.27732384 1.5740001 2.3405688e-38
0.31629905 -0.27732384 1.5740001 2.3406055e-38
0.31929716 -0.27732384 1.5740001 2.3406065e-38
0.32229528 -0.27732384 1.5740001 2.3406079e-38
0.32529333 -0.27732384 1.5740001 2.3404658e-38
0.32829145 -0.27732384 1.5740001 2.3404288e-38
0.33128956 -0.27732384 1.5740001 2.3403919e-38
0.33428764 -0.27732384 1.5740001 2.3403559e-38
0.33728573 -0.27732384 1.5740001 2.3403918e-38
0.34028384 -0.27732384 1.5740001 2.3404997e-38
0.34628001 -0.27732384 1.5740001 2.340499e-38
0.34927812 -0.27732384 1.5740001 2.3404623e-38
0.35227621 -0.27732384 1.5740001 2.3403907e-38
0.35527432 -0.27732384 1.5740001 2.3404627e-38
0.3582724 -0.27732384 1.5740001 2.3404983e-38
0.36127049 -0.27732384 1.5740001 2.3404623e-38
0.3642686 -0.27732384 1.5740001 2.3404288e-38
0.36726668 -0.27732384 1.5740001 2.3403953e-38
0.37026477 -0.27732384 1.5740001 2.3403932e-38
0.37326288 -0.27732384 1.5740001 2.3403554e-38
0.376261 -0.27732384 1.5740001 2.3403181e-38
0.37925905 -0.27732384 1.5740001 2.3403527e-38
0.38225716 -0.27732384 1.5740001 2.3403904e-38
0.38525528 -0.27732384 1.5740001 2.3403206e-38
0.38825336 -0.27732384 1.5740001 2.3403198e-38
0.39125144 -0.27732384 1.5740001 2.3402832e-38
0.39424956 -0.27732384 1.5740001 2.3402833e-38
0.39724767 -0.27732384 1.5740001 2.3402476e-38
0.40024573 -0.27732384 1.5740001 2.3402477e-38
0.40324384 -0.27732384 1.5740001 2.340248e-38
0.40624195 -0.27732384 1.5740001 2.3402477e-38
0.40924001 -0.27732384 1.5740001 2.3402833e-38
0.41223812 -0.27732384 1.5740001 2.3403561e-38
0.41523623 -0.27732384 1.5740001 2.3402853e-38
0.41823432 -0.27732384 1.5740001 2.3401414e-38
0.4212324 -0.27732384 1.5740001 2.340177e-38
0.42423052 -0.27732384 1.5740001 2.340212e-38
0.4272286 -0.27732384 1.5740001 2.3401754e-38
-0.74309242 -0.22256286 1.2770001 8.744129e-39
-0.74066007 -0.22256286 1.2770001 8.8356058e-39
-0.74111807 -0.2234343 1.2820001 9.0210719e-39
-0.73867625 -0.2234343 1.2820001 9.2965741e-39
-0.73910576 -0.22430572 1.2870001 9.3887656e-39
-0.73894382 -0.22500286 1.291 9.4806053e-39
-0.73648477 -0.22500286 1.291 9.7561174e-39
-0.73686856 -0.22587429 1.296 1.0122747e-38
-0.7372334 -0.22674574 1.3010001 9.6628567e-39
-0.73757911 -0.22761716 1.3060001 9.2958735e-39
-0.73509151 -0.22761716 1.3060001 9.1125612e-39
-0.73540866 -0.22848859 1.3110001 8.9285287e-39
-0.73291147 -0.22848859 1.3110001 9.0200027e-39
-0.73320001 -0.22936001 1.3160001 9.202952e-39
-0.73346961 -0.23023143 1.3210001 9.569931e-39
-0.73372006 -0.23110287 1.3260001 9.9376486e-39
-0.73395145 -0.23197429 1.3310001 9.6635938e-39
-0.74393141 -0.23842287 1.368 9.2944358e-39
-0.74457717 -0.23946859 1.3740001 9.5695793e-39
-0.74196005 -0.23946859 1.3740001 8.9267252e-39
-0.73934293 -0.23946859 1.3740001 8.2838754e-39
-0.73940665 -0.24034001 1.3790001 8.5600965e-39
-0.73998576 -0.24138573 1.3850001 8.9267252e-39
-0.73734772 -0.24138573 1.3850001 9.2018758e-39
-0.7405448 -0.24330285 1.396 9.476676e-39
-0.74105716 -0.24434857 1.4020001 9.1093453e-39
-0.73838669 -0.24434857 1.4020001 8.8341989e-39
-0.73834002 -0.24522002 1.4070001 8.6519642e-39
-0.73879719 -0.24626572 1.4130001 8.5612148e-39
-0.7361058 -0.24626572 1.4130001 8.6541377e-39
-0.74658006 -0.25254002 1.4490001 8.9278098e-39
-0.74382001 -0.25254002 1.4490001 8.8363247e-39
-0.74412858 -0.25358573 1.455 8.8363149e-39
-0.74441433 -0.25463143 1.4610001 8.9302929e-39
-0.74467719 -0.25567716 1.4670001 9.0217879e-39
-0.74188292 -0.25567716 1.4670001 9.2054771e-39
-0.74563807 -0.25794286 1.48 9.3873391e-39
-0.74281907 -0.25794286 1.48 9.4788018e-39
-0.74000001 -0.25794286 1.48 9.6635938e-39
-0.72678953 -0.27310574 1.567 1.9988727e-38
-0.72380477 -0.27310574 1.567 2.0079485e-38
-0.4272286 -0.27432573 1.5740001 2.3400688e-38
-0.42423052 -0.27432573 1.5740001 2.3400328e-38
-0.4212324 -0.27432573 1.5740001 2.3400319e-38
-0.41823432 -0.27432573 1.5740001 2.3400312e-38
-0.41523623 -0.27432573 1.5740001 2.3400673e-38
-0.41223812 -0.27432573 1.5740001 2.3401391e-38
-0.40924001 -0.27432573 1.5740001 2.3401033e-38
-0.40624195 -0.27432573 1.5740001 2.3401033e-38
-0.40324384 -0.27432573 1.5740001 2.3401387e-38
-0.40024573 -0.27432573 1.5740001 2.3401743e-38
-0.39724767 -0.27432573 1.5740001 2.3402472e-38
-0.39424956 -0.27432573 1.5740001 2.3402843e-38
-0.39125144 -0.27432573 1.5740001 2.3403199e-38
-0.38825336 -0.27432573 1.5740001 2.3404631e-38
-0.38525528 -0.27432573 1.5740001 2.3403195e-38
-0.3582724 -0.27432573 1.5740001 2.3403201e-38
-0.35527432 -0.27432573 1.5740001 2.3402838e-38
-0.35227621 -0.27432573 1.5740001 2.3403192e-38
-0.34927812 -0.27432573 1.5740001 2.3403189e-38
-0.34628001 -0.27432573 1.5740001 2.3403545e-38
-0.34328192 -0.27432573 1.5740001 2.3403548e-38
-0.34028384 -0.27432573 1.5740001 2.3403911e-38
-0.33728573 -0.27432573 1.5740001 2.3403552e-38
-0.33128956 -0.27432573 1.5740001 2.3403552e-38
-0.32829145 -0.27432573 1.5740001 2.3403194e-38
-0.31929716 -0.27432573 1.5740001 2.3403562e-38
-0.31629905 -0.27432573 1.5740001 2.3403915e-38
-0.31330097 -0.27432573 1.5740001 2.3403917e-38
-0.31030288 -0.27432573 1.5740001 2.3403919e-38
-0.30730477 -0.27432573 1.5740001 2.3403918e-38
-0.30430669 -0.27432573 1.5740001 2.3403917e-38
-0.3013086 -0.27432573 1.5740001 2.3403559e-38
-0.29831049 -0.27432573 1.5740001 2.3403201e-38
-0.2953124 -0.27432573 1.5740001 2.3403561e-38
-0.29231429 -0.27432573 1.5740001 2.3403921e-38
-0.28931621 -0.27432573 1.5740001 2.3404994e-38
-0.28631812 -0.27432573 1.5740001 2.340535e-38
-0.28332001 -0.27432573 1.5740001 2.3405352e-38
-0.28032193 -0.27432573 1.5740001 2.3404994e-38
-0.27732384 -0.27432573 1.5740001 2.3404987e-38
-0.27432573 -0.27432573 1.5740001 2.340498e-38
-0.27012095 -0.27310574 1.567 2.3404631e-38
-0.26713619 -0.27310574 1.567 2.3403924e-38
-0.26415142 -0.27310574 1.567 2.3404292e-38
-0.26233333 -0.27432573 1.5740001 2.3404662e-38
-0.25933528 -0.27432573 1.5740001 2.3405008e-38
-0.25633717 -0.27432573 1.5740001 2.3405356e-38
-0.25333905 -0.27432573 1.5740001 2.3405e-38
-0.25034097 -0.27432573 1.5740001 2.3405361e-38
-0.24734287 -0.27432573 1.5740001 2.3405357e-38
-0.2432581 -0.27310574 1.567 2.3405353e-38
-0.24134669 -0.27432573 1.5740001 2.3404637e-38
-0.23834859 -0.27432573 1.5740001 2.3404278e-38
-0.23430382 -0.27310574 1.567 2.340427e-38
-0.23131905 -0.27310574 1.567 2.3404619e-38
-0.22833429 -0.27310574 1.567 2.3404266e-38
-0.22534953 -0.27310574 1.567 2.3407498e-38
-0.22236477 -0.27310574 1.567 2.3406781e-38
-0.21937999 -0.27310574 1.567 2.3406424e-38
-0.21736191 -0.27432573 1.5740001 2.3406077e-38
-0.21341048 -0.27310574 1.567 2.3405733e-38
-0.21042572 -0.27310574 1.567 2.3405717e-38
-0.20744096 -0.27310574 1.567 2.3406421e-38
-0.2044562 -0.27310574 1.567 2.3405707e-38
-0.20147142 -0.27310574 1.567 2.3405712e-38
-0.19848667 -0.27310574 1.567 2.3405001e-38
-0.19550191 -0.27310574 1.567 2.3404651e-38
-0.19337717 -0.27432573 1.5740001 2.3405004e-38
-0.19037905 -0.27432573 1.5740001 2.3405357e-38
-0.18738097 -0.27432573 1.5740001 2.3405717e-38
-0.18438287 -0.27432573 1.5740001 2.3406438e-38
-0.18138477 -0.27432573 1.5740001 2.3406077e-38
-0.17838667 -0.27432573 1.5740001 2.3406076e-38
-0.17538859 -0.27432573 1.5740001 2.3406069e-38
-0.17162381 -0.27310574 1.567 2.3406063e-38
-0.16863905 -0.27310574 1.567 2.3405713e-38
-0.16565429 -0.27310574 1.567 2.3405721e-38
-0.16266952 -0.27310574 1.567 2.3405721e-38
-0.15968476 -0.27310574 1.567 2.3406799e-38
-0.1567 -0.27310574 1.567 2.3406073e-38
-0.15371524 -0.27310574 1.567 2.340499e-38
-0.15073048 -0.27310574 1.567 2.3405713e-38
-0.14774571 -0.27310574 1.567 2.3406077e-38
-0.14476095 -0.27310574 1.567 2.3405727e-38
-0.14177619 -0.27310574 1.567 2.3405736e-38
-0.13879143 -0.27310574 1.567 2.3405367e-38
-0.13580666 -0.27310574 1.567 2.3405357e-38
-0.1328219 -0.27310574 1.567 2.3406447e-38
-0.12983716 -0.27310574 1.567 2.340933e-38
-0.12685239 -0.27310574 1.567 2.3406805e-38
-0.12386762 -0.27310574 1.567 2.3406789e-38
-0.12088286 -0.27310574 1.567 2.3406795e-38
-0.11789809 -0.27310574 1.567 2.3407159e-38
-0.11491334 -0.27310574 1.567 2.3406809e-38
-0.11192857 -0.27310574 1.567 2.3406816e-38
-0.10894381 -0.27310574 1.567 2.3406806e-38
-0.10643239 -0.27432573 1.5740001 2.3407156e-38
-0.10343429 -0.27432573 1.5740001 2.340645e-38
-0.1004362 -0.27432573 1.5740001 2.3409691e-38
-0.097438097 -0.27432573 1.5740001 2.3408958e-38
-0.094020002 -0.27310574 1.567 2.3408586e-38
-0.091441914 -0.27432573 1.5740001 2.340823e-38
-0.088050477 -0.27310574 1.567 2.3407872e-38
-0.085065715 -0.27310574 1.567 2.340751e-38
-0.082447626 -0.27432573 1.5740001 2.3407505e-38
-0.079096191 -0.27310574 1.567 2.3407148e-38
-0.076451436 -0.27432573 1.5740001 2.3406792e-38
-0.073453337 -0.27432573 1.5740001 2.3406792e-38
-0.067457147 -0.27432573 1.5740001 2.3406796e-38
-0.064459056 -0.27432573 1.5740001 2.3406802e-38
-0.061460957 -0.27432573 1.5740001 2.34068e-38
-0.058462862 -0.27432573 1.5740001 2.3407517e-38
-0.055464763 -0.27432573 1.5740001 2.3407519e-38
-0.052466668 -0.27432573 1.5740001 2.341147e-38
-0.049468577 -0.27432573 1.5740001 2.3407521e-38
-0.046470478 -0.27432573 1.5740001 2.3407875e-38
-0.043472383 -0.27432573 1.5740001 2.3407524e-38
-0.040474288 -0.27432573 1.5740001 2.3407173e-38
-0.037309524 -0.27310574 1.567 2.3407169e-38
-0.034324761 -0.27310574 1.567 2.3407165e-38
-0.031339999 -0.27310574 1.567 2.3407173e-38
-0.028355239 -0.27310574 1.567 2.340754e-38
-0.025370477 -0.27310574 1.567 2.3407529e-38
-0.022385715 -0.27310574 1.567 2.3407877e-38
-0.019400952 -0.27310574 1.567 2.3408233e-38
-0.01641619 -0.27310574 1.567 2.340859e-38
-0.013491429 -0.27432573 1.5740001 2.3408233e-38
-0.010493333 -0.27432573 1.5740001 2.3407877e-38
-0.0074952389 -0.27432573 1.5740001 2.3407882e-38
-0.004497143 -0.27432573 1.5740001 2.3408247e-38
-0.0014990477 -0.27432573 1.5740001 2.3407875e-38
0.0014990477 -0.27432573 1.5740001 2.3407863e-38
0.004497143 -0.27432573 1.5740001 2.3408228e-38
0.0074952389 -0.27432573 1.5740001 2.3408235e-38
0.010493333 -0.27432573 1.5740001 2.3408591e-38
0.013491429 -0.27432573 1.5740001 2.3408947e-38
0.016489524 -0.27432573 1.5740001 2.3408589e-38
0.019487621 -0.27432573 1.5740001 2.3407512e-38
0.022385715 -0.27310574 1.567 2.340823e-38
0.025370477 -0.27310574 1.567 2.340823e-38
0.028481906 -0.27432573 1.5740001 2.3408596e-38
0.031479999 -0.27432573 1.5740001 2.3408603e-38
0.034478098 -0.27432573 1.5740001 2.3408591e-38
0.037476193 -0.27432573 1.5740001 2.340894e-38
0.040474288 -0.27432573 1.5740001 2.3408594e-38
0.043472383 -0.27432573 1.5740001 2.3408608e-38
0.046470478 -0.27432573 1.5740001 2.3408241e-38
0.049468577 -0.27432573 1.5740001 2.3408234e-38
0.055464763 -0.27432573 1.5740001 2.3408216e-38
0.067457147 -0.27432573 1.5740001 2.3409312e-38
0.070455238 -0.27432573 1.5740001 2.34086e-38
0.073453337 -0.27432573 1.5740001 2.3408247e-38
0.076451436 -0.27432573 1.5740001 2.3407885e-38
0.079449527 -0.27432573 1.5740001 2.3407882e-38
0.082447626 -0.27432573 1.5740001 2.3407888e-38
0.085445724 -0.27432573 1.5740001 2.3407894e-38
0.088443816 -0.27432573 1.5740001 2.3407525e-38
0.091441914 -0.27432573 1.5740001 2.3407515e-38
0.14840573 -0.27432573 1.5740001 2.3407857e-38
0.15140381 -0.27432573 1.5740001 2.3407851e-38
0.15440191 -0.27432573 1.5740001 2.3407867e-38
0.15740001 -0.27432573 1.5740001 2.3408242e-38
0.16939239 -0.27432573 1.5740001 2.3407512e-38
0.17239049 -0.27432573 1.5740001 2.3407521e-38
0.17538859 -0.27432573 1.5740001 2.3406812e-38
0.17838667 -0.27432573 1.5740001 2.3407155e-38
0.18138477 -0.27432573 1.5740001 2.3407857e-38
0.18438287 -0.27432573 1.5740001 2.3407863e-38
0.18738097 -0.27432573 1.5740001 2.3408228e-38
0.19037905 -0.27432573 1.5740001 2.3407868e-38
0.19337717 -0.27432573 1.5740001 2.3410378e-38
0.23535049 -0.27432573 1.5740001 2.3406803e-38
0.23834859 -0.27432573 1.5740001 2.3406435e-38
0.24134669 -0.27432573 1.5740001 2.3407861e-38
0.24434477 -0.27432573 1.5740001 2.3406777e-38
0.24734287 -0.27432573 1.5740001 2.3406408e-38
0.25034097 -0.27432573 1.5740001 2.3406419e-38
0.25333905 -0.27432573 1.5740001 2.3406432e-38
0.25633717 -0.27432573 1.5740001 2.3406433e-38
0.25933528 -0.27432573 1.5740001 2.3406793e-38
0.26233333 -0.27432573 1.5740001 2.34068e-38
0.26533145 -0.27432573 1.5740001 2.3406808e-38
0.26832956 -0.27432573 1.5740001 2.3406791e-38
0.27132761 -0.27432573 1.5740001 2.340785e-38
0.27432573 -0.27432573 1.5740001 2.3406419e-38
0.27732384 -0.27432573 1.5740001 2.3405707e-38
0.28032193 -0.27432573 1.5740001 2.3405717e-38
0.28332001 -0.27432573 1.5740001 2.3405727e-38
0.28631812 -0.27432573 1.5740001 2.3405363e-38
0.28931621 -0.27432573 1.5740001 2.3404641e-38
0.29231429 -0.27432573 1.5740001 2.3405364e-38
0.2953124 -0.27432573 1.5740001 2.3405011e-38
0.29831049 -0.27432573 1.5740001 2.3404998e-38
0.3013086 -0.27432573 1.5740001 2.3404986e-38
0.30430669 -0.27432573 1.5740001 2.3405346e-38
0.30730477 -0.27432573 1.5740001 2.3406066e-38
0.31030288 -0.27432573 1.5740001 2.3405702e-38
0.32229528 -0.27432573 1.5740001 2.3405343e-38
0.32529333 -0.27432573 1.5740001 2.3404266e-38
0.32829145 -0.27432573 1.5740001 2.3404273e-38
0.33128956 -0.27432573 1.5740001 2.3408942e-38
0.33428764 -0.27432573 1.5740001 2.3403559e-38
0.33728573 -0.27432573 1.5740001 2.3403918e-38
0.34028384 -0.27432573 1.5740001 2.3405003e-38
0.34628001 -0.27432573 1.5740001 2.340464e-38
0.34927812 -0.27432573 1.5740001 2.3404627e-38
0.35527432 -0.27432573 1.5740001 2.340463e-38
0.38525528 -0.27432573 1.5740001 2.3403556e-38
0.38825336 -0.27432573 1.5740001 2.3402835e-38
0.39125144 -0.27432573 1.5740001 2.3402832e-38
0.40024573 -0.27432573 1.5740001 2.3402838e-38
0.40324384 -0.27432573 1.5740001 2.3403203e-38
0.40624195 -0.27432573 1.5740001 2.3403195e-38
0.40924001 -0.27432573 1.5740001 2.3403187e-38
0.41223812 -0.27432573 1.5740001 2.3403192e-38
0.41523623 -0.27432573 1.5740001 2.3403199e-38
0.41823432 -0.27432573 1.5740001 2.3401761e-38
0.4212324 -0.27432573 1.5740001 2.3402119e-38
0.42423052 -0.27432573 1.5740001 2.3402109e-38
0.4272286 -0.27432573 1.5740001 2.3402099e-38
0.43022668 -0.27432573 1.5740001 2.3401743e-38
0.45720956 -0.27432573 1.5740001 2.3402459e-38
0.46020767 -0.27432573 1.5740001 2.3401387e-38
-0.74309242 -0.22013049 1.2770001 8.7441304e-39
-0.74066007 -0.22013049 1.2770001 8.6522992e-39
-0.74111807 -0.22099239 1.2820001 8.8370505e-39
-0.73867625 -0.22099239 1.2820001 9.1125584e-39
-0.73910576 -0.22185428 1.2870001 9.2040366e-39
-0.73665434 -0.22185428 1.2870001 9.3877048e-39
-0.73933715 -0.22340572 1.296 9.5724506e-39
-0.73971152 -0.22426763 1.3010001 9.7554083e-39
-0.74006671 -0.22512954 1.3060001 9.5706653e-39
-0.73757911 -0.22512954 1.3060001 9.2919246e-39
-0.7379058 -0.22599144 1.3110001 9.1118368e-39
-0.73540866 -0.22599144 1.3110001 9.0182118e-39
-0.73291147 -0.22599144 1.3110001 9.0174986e-39
-0.73320001 -0.22685334 1.3160001 9.108604e-39
-0.73624575 -0.22857715 1.3260001 9.3862502e-39
-0.73648667 -0.22943905 1.3310001 9.5703052e-39
-0.73395145 -0.22943905 1.3310001 9.4792124e-39
-0.74719429 -0.23685144 1.3740001 9.2026101e-39
-0.74457717 -0.23685144 1.3740001 9.2930036e-39
-0.74196005 -0.23685144 1.3740001 8.8348953e-39
-0.73934293 -0.23685144 1.3740001 8.4679135e-39
-0.74262387 -0.23874763 1.3850001 8.6515859e-39
-0.73998576 -0.23874763 1.3850001 8.9270868e-39
-0.73734772 -0.23874763 1.3850001 9.0182006e-39
-0.7405448 -0.24064381 1.396 9.1096928e-39
-0.74105716 -0.2416781 1.4020001 8.8338444e-39
-0.74102002 -0.24254 1.4070001 8.5594071e-39
-0.73834002 -0.24254 1.4070001 8.4679247e-39
-0.73879719 -0.24357431 1.4130001 8.3768109e-39
-0.73923141 -0.24460858 1.419 8.652323e-39
-0.7427572 -0.24667716 1.4310001 8.8363457e-39
-0.74348861 -0.24874572 1.4430001 8.8356142e-39
-0.74412858 -0.25081429 1.455 8.9292294e-39
-0.74135721 -0.25081429 1.455 8.929221e-39
-0.74163151 -0.25184858 1.4610001 9.0210733e-39
-0.74188292 -0.25288287 1.4670001 9.1122095e-39
-0.74563807 -0.25512382 1.48 9.295512e-39
-0.74281907 -0.25512382 1.48 9.2944274e-39
-0.74000001 -0.25512382 1.48 9.2919569e-39
-0.68206668 -0.27132761 1.5740001 1.9893672e-38
-0.67906862 -0.27132761 1.5740001 2.0719117e-38
-0.67607057 -0.27132761 1.5740001 2.0908172e-38
-0.67307246 -0.27132761 1.5740001 2.1092209e-38
-0.67007434 -0.27132761 1.5740001 2.1276605e-38
-0.66707623 -0.27132761 1.5740001 2.137023e-38
-0.4272286 -0.27132761 1.5740001 2.3399971e-38
-0.42423052 -0.27132761 1.5740001 2.3399969e-38
-0.4212324 -0.27132761 1.5740001 2.3400315e-38
-0.40624195 -0.27132761 1.5740001 2.3401389e-38
-0.40324384 -0.27132761 1.5740001 2.3401383e-38
-0.40024573 -0.27132761 1.5740001 2.3401738e-38
-0.39424956 -0.27132761 1.5740001 2.3402852e-38
-0.39125144 -0.27132761 1.5740001 2.3403565e-38
-0.38825336 -0.27132761 1.5740001 2.3403202e-38
-0.35527432 -0.27132761 1.5740001 2.3402852e-38
-0.35227621 -0.27132761 1.5740001 2.3403195e-38
-0.34927812 -0.27132761 1.5740001 2.3403187e-38
-0.34628001 -0.27132761 1.5740001 2.340318e-38
-0.34328192 -0.27132761 1.5740001 2.3403542e-38
-0.34028384 -0.27132761 1.5740001 2.3403907e-38
-0.33728573 -0.27132761 1.5740001 2.3404626e-38
-0.31330097 -0.27132761 1.5740001 2.3403559e-38
-0.31030288 -0.27132761 1.5740001 2.3403919e-38
-0.30730477 -0.27132761 1.5740001 2.3403921e-38
-0.30430669 -0.27132761 1.5740001 2.3403922e-38
-0.3013086 -0.27132761 1.5740001 2.3403921e-38
-0.29831049 -0.27132761 1.5740001 2.3403919e-38
-0.2953124 -0.27132761 1.5740001 2.3403919e-38
-0.29231429 -0.27132761 1.5740001 2.340428e-38
-0.28931621 -0.27132761 1.5740001 2.3404637e-38
-0.28631812 -0.27132761 1.5740001 2.3405712e-38
-0.28332001 -0.27132761 1.5740001 2.3405712e-38
-0.28032193 -0.27132761 1.5740001 2.3404994e-38
-0.27732384 -0.27132761 1.5740001 2.3404624e-38
-0.27432573 -0.27132761 1.5740001 2.3404614e-38
-0.27132761 -0.27132761 1.5740001 2.3404627e-38
-0.26713619 -0.27012095 1.567 2.3404281e-38
-0.26415142 -0.27012095 1.567 2.3406815e-38
-0.26233333 -0.27132761 1.5740001 2.3404686e-38
-0.25933528 -0.27132761 1.5740001 2.3405025e-38
-0.25633717 -0.27132761 1.5740001 2.3405005e-38
-0.25333905 -0.27132761 1.5740001 2.340501e-38
-0.25034097 -0.27132761 1.5740001 2.3405015e-38
-0.24734287 -0.27132761 1.5740001 2.3405008e-38
-0.24434477 -0.27132761 1.5740001 2.3404644e-38
-0.24134669 -0.27132761 1.5740001 2.3404284e-38
-0.23834859 -0.27132761 1.5740001 2.3404284e-38
-0.23535049 -0.27132761 1.5740001 2.3404997e-38
-0.23131905 -0.27012095 1.567 2.3404993e-38
-0.22833429 -0.27012095 1.567 2.3404991e-38
-0.22534953 -0.27012095 1.567 2.3405349e-38
-0.22236477 -0.27012095 1.567 2.3405703e-38
-0.21937999 -0.27012095 1.567 2.34057e-38
-0.21736191 -0.27132761 1.5740001 2.3407501e-38
-0.21136573 -0.27132761 1.5740001 2.3405713e-38
-0.20836763 -0.27132761 1.5740001 2.3405713e-38
-0.20536953 -0.27132761 1.5740001 2.3406072e-38
-0.20147142 -0.27012095 1.567 2.3405356e-38
-0.19848667 -0.27012095 1.567 2.3405359e-38
-0.19637525 -0.27132761 1.5740001 2.3405361e-38
-0.19337717 -0.27132761 1.5740001 2.3405357e-38
-0.19037905 -0.27132761 1.5740001 2.3405712e-38
-0.18738097 -0.27132761 1.5740001 2.3406424e-38
-0.18438287 -0.27132761 1.5740001 2.3406059e-38
-0.18138477 -0.27132761 1.5740001 2.3405709e-38
-0.17838667 -0.27132761 1.5740001 2.3406076e-38
-0.17538859 -0.27132761 1.5740001 2.3406075e-38
-0.17239049 -0.27132761 1.5740001 2.3406073e-38
-0.16939239 -0.27132761 1.5740001 2.3405719e-38
-0.16565429 -0.27012095 1.567 2.3405723e-38
-0.16266952 -0.27012095 1.567 2.340608e-38
-0.15968476 -0.27012095 1.567 2.3406079e-38
-0.1567 -0.27012095 1.567 2.3406073e-38
-0.15371524 -0.27012095 1.567 2.3406069e-38
-0.15073048 -0.27012095 1.567 2.3406072e-38
-0.14840573 -0.27132761 1.5740001 2.3406075e-38
-0.14540763 -0.27132761 1.5740001 2.3405719e-38
-0.14240953 -0.27132761 1.5740001 2.3405721e-38
-0.13941143 -0.27132761 1.5740001 2.3405716e-38
-0.13580666 -0.27012095 1.567 2.3406069e-38
-0.13341525 -0.27132761 1.5740001 2.3406809e-38
-0.13041714 -0.27132761 1.5740001 2.3406831e-38
-0.12685239 -0.27012095 1.567 2.3406808e-38
-0.12386762 -0.27012095 1.567 2.3406784e-38
-0.12088286 -0.27012095 1.567 2.3406791e-38
-0.11789809 -0.27012095 1.567 2.3407158e-38
-0.11491334 -0.27012095 1.567 2.3408605e-38
-0.11192857 -0.27012095 1.567 2.3406467e-38
-0.10943048 -0.27132761 1.5740001 2.340681e-38
-0.10643239 -0.27132761 1.5740001 2.3406796e-38
-0.10343429 -0.27132761 1.5740001 2.3405364e-38
-0.1004362 -0.27132761 1.5740001 2.340501e-38
-0.097438097 -0.27132761 1.5740001 2.3404641e-38
-0.094440006 -0.27132761 1.5740001 2.3404991e-38
-0.091441914 -0.27132761 1.5740001 2.3405714e-38
-0.088443816 -0.27132761 1.5740001 2.3407156e-38
-0.085445724 -0.27132761 1.5740001 2.3408241e-38
-0.082447626 -0.27132761 1.5740001 2.3407892e-38
-0.079449527 -0.27132761 1.5740001 2.3407879e-38
-0.076451436 -0.27132761 1.5740001 2.3407868e-38
-0.073453337 -0.27132761 1.5740001 2.3407867e-38
-0.070455238 -0.27132761 1.5740001 2.3407148e-38
-0.067457147 -0.27132761 1.5740001 2.3406788e-38
-0.064459056 -0.27132761 1.5740001 2.3406786e-38
-0.061460957 -0.27132761 1.5740001 2.3407148e-38
-0.058462862 -0.27132761 1.5740001 2.3407151e-38
-0.055464763 -0.27132761 1.5740001 2.3407152e-38
-0.052466668 -0.27132761 1.5740001 2.3406795e-38
-0.049468577 -0.27132761 1.5740001 2.3406798e-38
-0.046470478 -0.27132761 1.5740001 2.34068e-38
-0.043472383 -0.27132761 1.5740001 2.3407158e-38
-0.040474288 -0.27132761 1.5740001 2.3407517e-38
-0.037476193 -0.27132761 1.5740001 2.3408594e-38
-0.034324761 -0.27012095 1.567 2.3407878e-38
-0.031339999 -0.27012095 1.567 2.3407533e-38
-0.028355239 -0.27012095 1.567 2.3407908e-38
-0.025370477 -0.27012095 1.567 2.340861e-38
-0.022385715 -0.27012095 1.567 2.3408594e-38
-0.019400952 -0.27012095 1.567 2.3408591e-38
-0.01641619 -0.27012095 1.567 2.340823e-38
-0.013491429 -0.27132761 1.5740001 2.3406079e-38
-0.010493333 -0.27132761 1.5740001 2.3408234e-38
-0.0074952389 -0.27132761 1.5740001 2.3408593e-38
-0.004497143 -0.27132761 1.5740001 2.3408235e-38
-0.0014990477 -0.27132761 1.5740001 2.3408234e-38
0.0014990477 -0.27132761 1.5740001 2.3408234e-38
0.004497143 -0.27132761 1.5740001 2.3408238e-38
0.0074952389 -0.27132761 1.5740001 2.3408242e-38
0.010493333 -0.27132761 1.5740001 2.3408954e-38
0.013491429 -0.27132761 1.5740001 2.3408591e-38
0.016489524 -0.27132761 1.5740001 2.340859e-38
0.019487621 -0.27132761 1.5740001 2.340823e-38
0.025483811 -0.27132761 1.5740001 2.3408231e-38
0.028481906 -0.27132761 1.5740001 2.340859e-38
0.031479999 -0.27132761 1.5740001 2.340859e-38
0.034478098 -0.27132761 1.5740001 2.3406072e-38
0.037476193 -0.27132761 1.5740001 2.3408935e-38
0.040474288 -0.27132761 1.5740001 2.3408594e-38
0.043472383 -0.27132761 1.5740001 2.3408614e-38
0.046470478 -0.27132761 1.5740001 2.3408601e-38
0.049468577 -0.27132761 1.5740001 2.3408231e-38
0.052466668 -0.27132761 1.5740001 2.3408933e-38
0.064459056 -0.27132761 1.5740001 2.3408947e-38
0.067457147 -0.27132761 1.5740001 2.3408594e-38
0.070455238 -0.27132761 1.5740001 2.3408607e-38
0.073453337 -0.27132761 1.5740001 2.3407903e-38
0.076451436 -0.27132761 1.5740001 2.3407892e-38
0.079449527 -0.27132761 1.5740001 2.3407881e-38
0.082447626 -0.27132761 1.5740001 2.3407882e-38
0.085445724 -0.27132761 1.5740001 2.3408242e-38
0.088443816 -0.27132761 1.5740001 2.3408593e-38
0.091441914 -0.27132761 1.5740001 2.3407868e-38
0.15140381 -0.27132761 1.5740001 2.3408939e-38
0.15440191 -0.27132761 1.5740001 2.3408597e-38
0.15740001 -0.27132761 1.5740001 2.3408256e-38
0.17239049 -0.27132761 1.5740001 2.3407515e-38
0.17538859 -0.27132761 1.5740001 2.3407521e-38
0.17838667 -0.27132761 1.5740001 2.3407515e-38
0.18138477 -0.27132761 1.5740001 2.340751e-38
0.18438287 -0.27132761 1.5740001 2.3407511e-38
0.18738097 -0.27132761 1.5740001 2.3407872e-38
0.19037905 -0.27132761 1.5740001 2.3408227e-38
0.19337717 -0.27132761 1.5740001 2.3408224e-38
0.23535049 -0.27132761 1.5740001 2.3406089e-38
0.23834859 -0.27132761 1.5740001 2.3406435e-38
0.24434477 -0.27132761 1.5740001 2.3407126e-38
0.24734287 -0.27132761 1.5740001 2.3407112e-38
0.25034097 -0.27132761 1.5740001 2.340713e-38
0.25333905 -0.27132761 1.5740001 2.3406789e-38
0.25633717 -0.27132761 1.5740001 2.3406795e-38
0.26233333 -0.27132761 1.5740001 2.3406453e-38
0.26533145 -0.27132761 1.5740001 2.3406464e-38
0.26832956 -0.27132761 1.5740001 2.3406433e-38
0.27132761 -0.27132761 1.5740001 2.3406404e-38
0.27432573 -0.27132761 1.5740001 2.3406411e-38
0.27732384 -0.27132761 1.5740001 2.3405702e-38
0.28032193 -0.27132761 1.5740001 2.3405347e-38
0.28332001 -0.27132761 1.5740001 2.3405712e-38
0.28631812 -0.27132761 1.5740001 2.3405712e-38
0.28931621 -0.27132761 1.5740001 2.3405354e-38
0.29231429 -0.27132761 1.5740001 2.3405367e-38
0.2953124 -0.27132761 1.5740001 2.3405381e-38
0.29831049 -0.27132761 1.5740001 2.3405366e-38
0.3013086 -0.27132761 1.5740001 2.3404991e-38
0.30430669 -0.27132761 1.5740001 2.3404991e-38
0.30730477 -0.27132761 1.5740001 2.340571e-38
0.31030288 -0.27132761 1.5740001 2.3406068e-38
0.33428764 -0.27132761 1.5740001 2.3403919e-38
0.33728573 -0.27132761 1.5740001 2.3403918e-38
0.34028384 -0.27132761 1.5740001 2.3405008e-38
0.40624195 -0.27132761 1.5740001 2.3403195e-38
0.40924001 -0.27132761 1.5740001 2.3402824e-38
0.41223812 -0.27132761 1.5740001 2.3402825e-38
0.41523623 -0.27132761 1.5740001 2.3402469e-38
0.41823432 -0.27132761 1.5740001 2.340211e-38
0.4212324 -0.27132761 1.5740001 2.340211e-38
0.42423052 -0.27132761 1.5740001 2.3402456e-38
0.4272286 -0.27132761 1.5740001 2.3402085e-38
0.45720956 -0.27132761 1.5740001 2.340138e-38
0.46020767 -0.27132761 1.5740001 2.3402106e-38
-0.74018288 -0.21684574 1.2720001 8.6519488e-39
-0.73776007 -0.21684574 1.2720001 8.5601133e-39
-0.73822767 -0.2176981 1.2770001 8.7448619e-39
-0.74155712 -0.21940286 1.2870001 8.9285343e-39
-0.73910576 -0.21940286 1.2870001 9.1125668e-39
-0.73665434 -0.21940286 1.2870001 9.3880761e-39
-0.74218959 -0.22178955 1.3010001 9.3887978e-39
-0.73971152 -0.22178955 1.3010001 9.480269e-39
-0.74006671 -0.22264192 1.3060001 9.3866342e-39
-0.73757911 -0.22264192 1.3060001 9.3866328e-39
-0.7379058 -0.22349431 1.3110001 9.202959e-39
-0.73540866 -0.22349431 1.3110001 9.1104144e-39
-0.73291147 -0.22349431 1.3110001 9.1100627e-39
-0.73320001 -0.22434668 1.3160001 9.1104116e-39
-0.73624575 -0.22605145 1.3260001 9.2029548e-39
-0.73372006 -0.22605145 1.3260001 9.2944442e-39
-0.73395145 -0.22690383 1.3310001 9.2966106e-39
-0.73416388 -0.2277562 1.3360001 9.3862825e-39
-0.73161912 -0.2277562 1.3360001 9.2958721e-39
-0.74719429 -0.2342343 1.3740001 9.1107886e-39
-0.74457717 -0.2342343 1.3740001 9.0185719e-39
-0.74466008 -0.23508668 1.3790001 8.8348799e-39
-0.74203336 -0.23508668 1.3790001 8.6512145e-39
-0.74530482 -0.23696192 1.3900001 8.7434158e-39
-0.74265718 -0.23696192 1.3900001 8.9270854e-39
-0.74320382 -0.23798476 1.396 8.834531e-39
-0.74372768 -0.23900762 1.4020001 8.8338248e-39
-0.74105716 -0.23900762 1.4020001 8.5583295e-39
-0.74102002 -0.23986001 1.4070001 8.3753717e-39
-0.73834002 -0.23986001 1.4070001 8.2842509e-39
-0.73879719 -0.24088287 1.4130001 8.2842481e-39
-0.73923141 -0.24190572 1.419 8.6515873e-39
-0.74003148 -0.24395144 1.4310001 8.83561e-39
-0.74039716 -0.24497427 1.437 8.7437689e-39
-0.74074 -0.24599716 1.4430001 8.8359589e-39
-0.74106002 -0.24702002 1.4490001 9.0203404e-39
-0.74135721 -0.24804287 1.455 9.0210522e-39
-0.74163151 -0.24906573 1.4610001 9.0203502e-39
-0.73884857 -0.24906573 1.4610001 9.1118424e-39
-0.68206668 -0.26832956 1.5740001 1.9802197e-38
-0.67906862 -0.26832956 1.5740001 2.0169539e-38
-0.67607057 -0.26832956 1.5740001 2.0540111e-38
-0.67307246 -0.26832956 1.5740001 2.0908893e-38
-0.67007434 -0.26832956 1.5740001 2.109257e-38
-0.66707623 -0.26832956 1.5740001 2.136987e-38
-0.35227621 -0.26832956 1.5740001 2.3403198e-38
-0.34927812 -0.26832956 1.5740001 2.3403194e-38
-0.31330097 -0.26832956 1.5740001 2.3403556e-38
-0.30730477 -0.26832956 1.5740001 2.3403914e-38
-0.30430669 -0.26832956 1.5740001 2.3404273e-38
-0.3013086 -0.26832956 1.5740001 2.3404273e-38
-0.29831049 -0.26832956 1.5740001 2.3406426e-38
-0.2953124 -0.26832956 1.5740001 2.3404277e-38
-0.29231429 -0.26832956 1.5740001 2.3404638e-38
-0.28931621 -0.26832956 1.5740001 2.3404637e-38
-0.28631812 -0.26832956 1.5740001 2.340607e-38
-0.28332001 -0.26832956 1.5740001 2.3405353e-38
-0.28032193 -0.26832956 1.5740001 2.3404996e-38
-0.27732384 -0.26832956 1.5740001 2.3404987e-38
-0.27432573 -0.26832956 1.5740001 2.340498e-38
-0.27132761 -0.26832956 1.5740001 2.3404986e-38
-0.26713619 -0.26713619 1.567 2.3404991e-38
-0.26533145 -0.26832956 1.5740001 2.3404647e-38
-0.26233333 -0.26832956 1.5740001 2.3404661e-38
-0.25633717 -0.26832956 1.5740001 2.3404638e-38
-0.25333905 -0.26832956 1.5740001 2.3404645e-38
-0.25034097 -0.26832956 1.5740001 2.3404652e-38
-0.24434477 -0.26832956 1.5740001 2.3404288e-38
-0.24134669 -0.26832956 1.5740001 2.3404287e-38
-0.23834859 -0.26832956 1.5740001 2.3404645e-38
-0.23535049 -0.26832956 1.5740001 2.3404284e-38
-0.23131905 -0.26713619 1.567 2.3403922e-38
-0.22833429 -0.26713619 1.567 2.3404278e-38
-0.22534953 -0.26713619 1.567 2.3403918e-38
-0.22236477 -0.26713619 1.567 2.340428e-38
-0.22036001 -0.26832956 1.5740001 2.3405e-38
-0.21736191 -0.26832956 1.5740001 2.3406075e-38
-0.21436383 -0.26832956 1.5740001 2.3406791e-38
-0.21136573 -0.26832956 1.5740001 2.3405714e-38
-0.20836763 -0.26832956 1.5740001 2.3405356e-38
-0.20536953 -0.26832956 1.5740001 2.3405356e-38
-0.20237145 -0.26832956 1.5740001 2.3405356e-38
-0.19848667 -0.26713619 1.567 2.340536e-38
-0.19337717 -0.26832956 1.5740001 2.340572e-38
-0.19037905 -0.26832956 1.5740001 2.3406077e-38
-0.18738097 -0.26832956 1.5740001 2.3405712e-38
-0.18438287 -0.26832956 1.5740001 2.3405705e-38
-0.18138477 -0.26832956 1.5740001 2.3405712e-38
-0.17838667 -0.26832956 1.5740001 2.3406077e-38
-0.17538859 -0.26832956 1.5740001 2.340607e-38
-0.17239049 -0.26832956 1.5740001 2.3406065e-38
-0.16939239 -0.26832956 1.5740001 2.3406079e-38
-0.16639431 -0.26832956 1.5740001 2.3406452e-38
-0.16339619 -0.26832956 1.5740001 2.3406446e-38
-0.15968476 -0.26713619 1.567 2.3407515e-38
-0.15740001 -0.26832956 1.5740001 2.3405713e-38
-0.15440191 -0.26832956 1.5740001 2.3405705e-38
-0.15140381 -0.26832956 1.5740001 2.3405709e-38
-0.14840573 -0.26832956 1.5740001 2.3406073e-38
-0.14540763 -0.26832956 1.5740001 2.3405719e-38
-0.14240953 -0.26832956 1.5740001 2.3405724e-38
-0.13941143 -0.26832956 1.5740001 2.3406079e-38
-0.13641334 -0.26832956 1.5740001 2.3406435e-38
-0.13341525 -0.26832956 1.5740001 2.3406806e-38
-0.13041714 -0.26832956 1.5740001 2.340682e-38
-0.12741905 -0.26832956 1.5740001 2.3406806e-38
-0.12442096 -0.26832956 1.5740001 2.3406075e-38
-0.12142286 -0.26832956 1.5740001 2.3406435e-38
-0.11842477 -0.26832956 1.5740001 2.3407155e-38
-0.11542667 -0.26832956 1.5740001 2.3406447e-38
-0.11242858 -0.26832956 1.5740001 2.3406098e-38
-0.10943048 -0.26832956 1.5740001 2.3406447e-38
-0.10643239 -0.26832956 1.5740001 2.3406798e-38
-0.10343429 -0.26832956 1.5740001 2.3405721e-38
-0.1004362 -0.26832956 1.5740001 2.3405004e-38
-0.097438097 -0.26832956 1.5740001 2.3405e-38
-0.094440006 -0.26832956 1.5740001 2.3404996e-38
-0.091441914 -0.26832956 1.5740001 2.3406075e-38
-0.085445724 -0.26832956 1.5740001 2.3407159e-38
-0.082447626 -0.26832956 1.5740001 2.3407881e-38
-0.079449527 -0.26832956 1.5740001 2.3407512e-38
-0.076451436 -0.26832956 1.5740001 2.3407504e-38
-0.073453337 -0.26832956 1.5740001 2.3407507e-38
-0.070455238 -0.26832956 1.5740001 2.3407508e-38
-0.067457147 -0.26832956 1.5740001 2.3407149e-38
-0.064459056 -0.26832956 1.5740001 2.3406433e-38
-0.061460957 -0.26832956 1.5740001 2.3406792e-38
-0.058462862 -0.26832956 1.5740001 2.3406792e-38
-0.055464763 -0.26832956 1.5740001 2.3406786e-38
-0.052466668 -0.26832956 1.5740001 2.3406781e-38
-0.049468577 -0.26832956 1.5740001 2.3406796e-38
-0.046470478 -0.26832956 1.5740001 2.3407169e-38
-0.043472383 -0.26832956 1.5740001 2.3406799e-38
-0.040474288 -0.26832956 1.5740001 2.3408223e-38
-0.037476193 -0.26832956 1.5740001 2.3408227e-38
-0.034478098 -0.26832956 1.5740001 2.3408233e-38
-0.031339999 -0.26713619 1.567 2.3408241e-38
-0.028355239 -0.26713619 1.567 2.3408249e-38
-0.025370477 -0.26713619 1.567 2.3407882e-38
-0.022385715 -0.26713619 1.567 2.3406798e-38
-0.019400952 -0.26713619 1.567 2.3408231e-38
-0.01641619 -0.26713619 1.567 2.3408231e-38
-0.013491429 -0.26832956 1.5740001 2.3408591e-38
-0.010493333 -0.26832956 1.5740001 2.3408951e-38
-0.0074952389 -0.26832956 1.5740001 2.3408594e-38
-0.004497143 -0.26832956 1.5740001 2.3408237e-38
-0.0014990477 -0.26832956 1.5740001 2.3408594e-38
0.0014990477 -0.26832956 1.5740001 2.3408951e-38
0.004497143 -0.26832956 1.5740001 2.3408242e-38
0.0074952389 -0.26832956 1.5740001 2.3408249e-38
0.010493333 -0.26832956 1.5740001 2.3408241e-38
0.013491429 -0.26832956 1.5740001 2.3408591e-38
0.016489524 -0.26832956 1.5740001 2.3407868e-38
0.019487621 -0.26832956 1.5740001 2.3410014e-38
0.022485716 -0.26832956 1.5740001 2.3407867e-38
0.025483811 -0.26832956 1.5740001 2.3407874e-38
0.028481906 -0.26832956 1.5740001 2.3408594e-38
0.034478098 -0.26832956 1.5740001 2.340895e-38
0.037476193 -0.26832956 1.5740001 2.3408943e-38
0.040474288 -0.26832956 1.5740001 2.3408594e-38
0.043472383 -0.26832956 1.5740001 2.3408604e-38
0.067457147 -0.26832956 1.5740001 2.3407872e-38
0.070455238 -0.26832956 1.5740001 2.3407874e-38
0.073453337 -0.26832956 1.5740001 2.3407877e-38
0.076451436 -0.26832956 1.5740001 2.3407875e-38
0.079449527 -0.26832956 1.5740001 2.3407517e-38
0.082447626 -0.26832956 1.5740001 2.3408242e-38
0.085445724 -0.26832956 1.5740001 2.3408611e-38
0.091441914 -0.26832956 1.5740001 2.3408949e-38
0.17538859 -0.26832956 1.5740001 2.3407159e-38
0.17838667 -0.26832956 1.5740001 2.3407514e-38
0.18138477 -0.26832956 1.5740001 2.340787e-38
0.18438287 -0.26832956 1.5740001 2.3407512e-38
0.18738097 -0.26832956 1.5740001 2.3407514e-38
0.19037905 -0.26832956 1.5740001 2.3407872e-38
0.19337717 -0.26832956 1.5740001 2.340895e-38
0.23535049 -0.26832956 1.5740001 2.3405723e-38
0.23834859 -0.26832956 1.5740001 2.3406433e-38
0.24434477 -0.26832956 1.5740001 2.3407147e-38
0.24734287 -0.26832956 1.5740001 2.3407149e-38
0.25034097 -0.26832956 1.5740001 2.3407149e-38
0.25333905 -0.26832956 1.5740001 2.3407151e-38
0.25633717 -0.26832956 1.5740001 2.3406433e-38
0.25933528 -0.26832956 1.5740001 2.3406433e-38
0.26233333 -0.26832956 1.5740001 2.340644e-38
0.26533145 -0.26832956 1.5740001 2.3407165e-38
0.26832956 -0.26832956 1.5740001 2.3406429e-38
0.27132761 -0.26832956 1.5740001 2.340641e-38
0.27432573 -0.26832956 1.5740001 2.3406417e-38
0.27732384 -0.26832956 1.5740001 2.3406065e-38
0.29231429 -0.26832956 1.5740001 2.340607e-38
0.3013086 -0.26832956 1.5740001 2.3405346e-38
0.30430669 -0.26832956 1.5740001 2.3405353e-38
0.30730477 -0.26832956 1.5740001 2.3405717e-38
0.31030288 -0.26832956 1.5740001 2.3405716e-38
0.31330097 -0.26832956 1.5740001 2.3406072e-38
0.33728573 -0.26832956 1.5740001 2.3404277e-38
0.34028384 -0.26832956 1.5740001 2.3404635e-38
0.41223812 -0.26832956 1.5740001 2.3402463e-38
0.41523623 -0.26832956 1.5740001 2.3402466e-38
0.41823432 -0.26832956 1.5740001 2.3402466e-38
0.4212324 -0.26832956 1.5740001 2.3402825e-38
0.42423052 -0.26832956 1.5740001 2.3402458e-38
-0.7378552 -0.21374857 1.268 8.8356324e-39
-0.73543996 -0.21374857 1.268 8.7430767e-39
-0.7353372 -0.21442287 1.2720001 8.8356268e-39
-0.73579526 -0.21526572 1.2770001 9.0200181e-39
-0.73336291 -0.21526572 1.2770001 9.1122151e-39
-0.73093051 -0.21526572 1.2770001 9.296612e-39
-0.73971152 -0.21931145 1.3010001 9.4809948e-39
-0.74006671 -0.2201543 1.3060001 9.4806221e-39
-0.74040288 -0.22099715 1.3110001 9.3884279e-39
-0.7379058 -0.22099715 1.3110001 9.2940826e-39
-0.73540866 -0.22099715 1.3110001 9.1086292e-39
-0.73291147 -0.22099715 1.3110001 9.1104341e-39
-0.73320001 -0.22184002 1.3160001 9.1100669e-39
-0.73624575 -0.22352572 1.3260001 9.2018954e-39
-0.73372006 -0.22352572 1.3260001 9.294091e-39
-0.73395145 -0.22436859 1.3310001 9.2940924e-39
-0.73141623 -0.22436859 1.3310001 9.3862769e-39
-0.74457717 -0.23161715 1.3740001 8.9270952e-39
-0.74530482 -0.23431429 1.3900001 8.7430528e-39
-0.74265718 -0.23431429 1.3900001 8.9278014e-39
-0.74320382 -0.23532572 1.396 8.8334562e-39
-0.74372768 -0.23633714 1.4020001 8.8334618e-39
-0.74105716 -0.23633714 1.4020001 8.6501566e-39
-0.73838669 -0.23633714 1.4020001 8.467203e-39
-0.73834002 -0.23718001 1.4070001 8.1906204e-39
-0.73879719 -0.23819144 1.4130001 7.9143852e-39
-0.73923141 -0.23920286 1.419 8.283511e-39
-0.73964292 -0.24021429 1.4250001 8.6512103e-39
-0.74003148 -0.24122573 1.4310001 8.7437633e-39
