# .PCD v0.7 - Point Cloud Data file format
VERSION 0.7
FIELDS x y z rgb
SIZE 4 4 4 4
TYPE F F F F
COUNT 1 1 1 1
WIDTH 1073
HEIGHT 1
VIEWPOINT 0 0 0 1 0 0 0
POINTS 1073
DATA ascii
0.07158 0.010225714 1.1930001 2.3140733e-38
0.074100003 0.010260001 1.197 2.3140735e-38
0.076380007 0.010260001 1.197 2.3232571e-38
0.078660004 0.010260001 1.197 2.3232573e-38
0.080940001 0.010260001 1.197 2.3232571e-38
0.083220005 0.010260001 1.197 2.3232571e-38
0.085500002 0.010260001 1.197 2.323257e-38
0.087779999 0.010260001 1.197 2.323257e-38
0.090060003 0.010260001 1.197 2.3232562e-38
0.09234 0.010260001 1.197 2.3232555e-38
0.094620004 0.010260001 1.197 2.3232559e-38
0.096900001 0.010260001 1.197 2.3232563e-38
0.099179998 0.010260001 1.197 2.3232567e-38
0.10112096 0.010225714 1.1930001 2.323293e-38
0.10304666 0.010191428 1.189 2.3232918e-38
0.10495715 0.010157144 1.1850001 2.3232906e-38
0.10721429 0.010157144 1.1850001 2.3324736e-38
0.10910191 0.010122858 1.1810001 2.3232895e-38
0.11135144 0.010122858 1.1810001 2.3232525e-38
0.11360096 0.010122858 1.1810001 2.3232514e-38
0.11545809 0.010088571 1.177 2.3325075e-38
0.1177 0.010088571 1.177 2.332293e-38
0.11953429 0.010054287 1.1730001 2.3416178e-38
0.12176858 0.010054287 1.1730001 2.3417589e-38
0.12442572 0.010088571 1.177 2.34129e-38
0.12934764 0.010122858 1.1810001 2.2202508e-38
0.13159716 0.010122858 1.1810001 2.2201429e-38
0.05061429 0.012372382 1.1810001 2.3325106e-38
0.052863814 0.012372382 1.1810001 2.3324392e-38
0.055300001 0.012414286 1.1850001 2.32322e-38
0.057557143 0.012414286 1.1850001 2.3232202e-38
0.060016192 0.012456191 1.189 2.3232203e-38
0.062280957 0.012456191 1.189 2.3232202e-38
0.064762861 0.012498097 1.1930001 2.3140365e-38
0.067035235 0.012498097 1.1930001 2.3140367e-38
0.069307618 0.012498097 1.1930001 2.3140729e-38
0.07158 0.012498097 1.1930001 2.314073e-38
0.074100003 0.01254 1.197 2.3140732e-38
0.076380007 0.01254 1.197 2.3232567e-38
0.078660004 0.01254 1.197 2.3232569e-38
0.080940001 0.01254 1.197 2.3232567e-38
0.083220005 0.01254 1.197 2.3232567e-38
0.085500002 0.01254 1.197 2.3232564e-38
0.087779999 0.01254 1.197 2.3232563e-38
0.090060003 0.01254 1.197 2.3232548e-38
0.09234 0.01254 1.197 2.3232534e-38
0.094620004 0.01254 1.197 2.3232545e-38
0.096900001 0.01254 1.197 2.3232557e-38
0.099179998 0.01254 1.197 2.3232559e-38
0.10112096 0.012498097 1.1930001 2.3232562e-38
0.10304666 0.012456191 1.189 2.3232913e-38
0.10495715 0.012414286 1.1850001 2.3324743e-38
0.10721429 0.012414286 1.1850001 2.3325096e-38
0.10910191 0.012372382 1.1810001 2.3325092e-38
0.11135144 0.012372382 1.1810001 2.3325438e-38
0.11360096 0.012372382 1.1810001 2.3325067e-38
0.11585049 0.012372382 1.1810001 2.3325082e-38
0.1177 0.012330476 1.177 2.3325458e-38
0.11994191 0.012330476 1.177 2.3417614e-38
0.12259907 0.012372382 1.1810001 2.267823e-38
0.12484859 0.012372382 1.1810001 2.2031031e-38
0.12934764 0.012372382 1.1810001 2.2107777e-38
0.13159716 0.012372382 1.1810001 2.2109236e-38
0.053042859 0.014671429 1.1850001 2.3417656e-38
0.055300001 0.014671429 1.1850001 2.341767e-38
0.057751428 0.014720952 1.189 2.3417312e-38
0.060016192 0.014720952 1.189 2.3325117e-38
0.062490482 0.014770477 1.1930001 2.3324397e-38
0.06498 0.014820001 1.197 2.3232202e-38
0.067035235 0.014770477 1.1930001 2.3232203e-38
0.069539994 0.014820001 1.197 2.3232563e-38
0.071820006 0.014820001 1.197 2.3232563e-38
0.074100003 0.014820001 1.197 2.3232563e-38
0.076380007 0.014820001 1.197 2.3232562e-38
0.078660004 0.014820001 1.197 2.3232562e-38
0.080940001 0.014820001 1.197 2.3232562e-38
0.083220005 0.014820001 1.197 2.3232562e-38
0.085500002 0.014820001 1.197 2.3232559e-38
0.087779999 0.014820001 1.197 2.3232556e-38
0.090060003 0.014820001 1.197 2.3232548e-38
0.095015235 0.014881905 1.202 2.3324382e-38
0.096900001 0.014820001 1.197 2.3232912e-38
0.099179998 0.014820001 1.197 2.3232556e-38
0.10112096 0.014770477 1.1930001 2.323256e-38
0.10339334 0.014770477 1.1930001 2.332475e-38
0.10531143 0.014720952 1.189 2.3325106e-38
0.10721429 0.014671429 1.1850001 2.3417299e-38
0.10947143 0.014671429 1.1850001 2.3417656e-38
0.11172857 0.014671429 1.1850001 2.3417645e-38
0.11360096 0.014621906 1.1810001 2.3417634e-38
0.11585049 0.014621906 1.1810001 2.3417613e-38
0.11810001 0.014621906 1.1810001 2.3417592e-38
0.12034953 0.014621906 1.1810001 2.3402143e-38
0.12259907 0.014621906 1.1810001 2.2009161e-38
0.11914001 0.013953334 1.1270001 2.0636278e-38
0.12128668 0.013953334 1.1270001 2.1375613e-38
0.12934764 0.014621906 1.1810001 2.2109586e-38
0.13159716 0.014621906 1.1810001 2.2109235e-38
0.044280004 0.0162 1.1340001 1.749778e-38
0.046440002 0.0162 1.1340001 1.9079093e-38
0.057751428 0.016985714 1.189 2.3417675e-38
0.062490482 0.017042857 1.1930001 2.3325835e-38
0.06498 0.017099999 1.197 2.3325833e-38
0.067259997 0.017099999 1.197 2.3325832e-38
0.069539994 0.017099999 1.197 2.3325115e-38
0.071820006 0.017099999 1.197 2.3324396e-38
0.074100003 0.017099999 1.197 2.3324394e-38
0.076380007 0.017099999 1.197 2.3324393e-38
0.078660004 0.017099999 1.197 2.3324392e-38
0.080940001 0.017099999 1.197 2.3324392e-38
0.083220005 0.017099999 1.197 2.3324392e-38
0.085500002 0.017099999 1.197 2.3324387e-38
0.087779999 0.017099999 1.197 2.3324385e-38
0.090060003 0.017099999 1.197 2.3324742e-38
0.092725717 0.017171429 1.202 2.332474e-38
0.095015235 0.017171429 1.202 2.3324742e-38
0.096900001 0.017099999 1.197 2.3324745e-38
0.099179998 0.017099999 1.197 2.3325108e-38
0.10146 0.017099999 1.197 2.3325471e-38
0.10339334 0.017042857 1.1930001 2.3325828e-38
0.10531143 0.016985714 1.189 2.3325828e-38
0.10721429 0.016928572 1.1850001 2.3417665e-38
0.10947143 0.016928572 1.1850001 2.3417668e-38
0.11172857 0.016928572 1.1850001 2.3417658e-38
0.11398572 0.016928572 1.1850001 2.2222352e-38
0.11585049 0.01687143 1.1810001 2.1118832e-38
0.11810001 0.01687143 1.1810001 1.9713261e-38
0.12034953 0.01687143 1.1810001 1.8399932e-38
0.11699334 0.016100001 1.1270001 1.9701762e-38
0.11914001 0.016100001 1.1270001 2.0906045e-38
0.12128668 0.016100001 1.1270001 2.1744422e-38
0.039960004 0.018360002 1.1340001 1.5714279e-38
0.042120002 0.018360002 1.1340001 1.2586915e-38
0.044280004 0.018360002 1.1340001 1.3684344e-38
0.046440002 0.018360002 1.1340001 1.4807552e-38
0.048600003 0.018360002 1.1340001 1.7124981e-38
0.060420003 0.019380001 1.197 2.3417645e-38
0.062699996 0.019380001 1.197 2.3417642e-38
0.06498 0.019380001 1.197 2.3417641e-38
0.067259997 0.019380001 1.197 2.3417649e-38
0.069539994 0.019380001 1.197 2.3417656e-38
0.071820006 0.019380001 1.197 2.3417661e-38
0.074100003 0.019380001 1.197 2.3417665e-38
0.076380007 0.019380001 1.197 2.3417665e-38
0.078660004 0.019380001 1.197 2.3417665e-38
0.080940001 0.019380001 1.197 2.3417668e-38
0.083220005 0.019380001 1.197 2.341767e-38
0.085500002 0.019380001 1.197 2.3417665e-38
0.087779999 0.019380001 1.197 2.3417661e-38
0.090060003 0.019380001 1.197 2.3417658e-38
0.092725717 0.019460952 1.202 2.3417655e-38
0.095015235 0.019460952 1.202 2.3417654e-38
0.097304761 0.019460952 1.202 2.3417654e-38
0.099179998 0.019380001 1.197 2.3417649e-38
0.10146 0.019380001 1.197 2.3417645e-38
0.10339334 0.019315239 1.1930001 2.3417623e-38
0.10566572 0.019315239 1.1930001 2.34176e-38
0.10757619 0.019250475 1.189 2.3415822e-38
0.10947143 0.019185714 1.1850001 2.3414045e-38
0.11172857 0.019185714 1.1850001 2.340072e-38
0.11398572 0.019185714 1.1850001 2.1091509e-38
0.11484668 0.018246669 1.1270001 1.3523627e-38
0.11699334 0.018246669 1.1270001 1.7394742e-38
0.11914001 0.018246669 1.1270001 2.1280197e-38
0.12128668 0.018246669 1.1270001 2.2113558e-38
0.12343334 0.018246669 1.1270001 2.2938272e-38
0.039960004 0.020520002 1.1340001 1.6082693e-38
0.042120002 0.020520002 1.1340001 1.3051416e-38
0.044162858 0.020465715 1.131 1.3688897e-38
0.046317145 0.020465715 1.131 1.4326737e-38
0.050133333 0.020266667 1.12 1.6439053e-38
0.052266669 0.020266667 1.12 1.7466549e-38
0.071820006 0.02166 1.197 2.1305439e-38
0.074100003 0.02166 1.197 2.1489119e-38
0.076380007 0.02166 1.197 2.1580956e-38
0.078660004 0.02166 1.197 2.176463e-38
0.080940001 0.02166 1.197 2.1948305e-38
0.083220005 0.02166 1.197 2.2040146e-38
0.085500002 0.02166 1.197 2.2131976e-38
0.087779999 0.02166 1.197 2.2131971e-38
0.09043619 0.021750478 1.202 2.2223802e-38
0.092725717 0.021750478 1.202 2.2040127e-38
0.095015235 0.021750478 1.202 2.1948287e-38
0.097304761 0.021750478 1.202 2.1489105e-38
0.099594288 0.021750478 1.202 2.1121751e-38
0.10374 0.02166 1.197 1.9642281e-38
0.10602 0.02166 1.197 1.9355251e-38
0.10757619 0.021515237 1.189 1.8976818e-38
0.10947143 0.021442859 1.1850001 1.8768067e-38
0.11172857 0.021442859 1.1850001 1.8651386e-38
0.10802191 0.020320952 1.123 1.76368e-38
0.11016095 0.020320952 1.123 1.6622624e-38
0.1123 0.020320952 1.123 1.5521994e-38
0.11484668 0.020393334 1.1270001 1.442148e-38
0.11699334 0.020393334 1.1270001 1.7954713e-38
0.11914001 0.020393334 1.1270001 2.1471037e-38
0.12128668 0.020393334 1.1270001 2.2021005e-38
0.12343334 0.020393334 1.1270001 2.2570929e-38
0.039960004 0.022680001 1.1340001 1.6359277e-38
0.042008571 0.022620002 1.131 1.3606028e-38
0.044162858 0.022620002 1.131 1.3791515e-38
0.048128571 0.022460001 1.123 1.3683878e-38
0.050133333 0.022400001 1.12 1.3500251e-38
0.052266669 0.022400001 1.12 1.3500293e-38
0.054399997 0.022400001 1.12 1.3592141e-38
0.058457147 0.02232 1.1160001 1.4151776e-38
0.060582861 0.02232 1.1160001 1.5354606e-38
0.062708572 0.02232 1.1160001 1.6653964e-38
0.064834289 0.02232 1.1160001 1.7953322e-38
0.076699048 0.024040001 1.202 1.9802256e-38
0.078660004 0.023940001 1.197 2.0173908e-38
0.080940001 0.023940001 1.197 2.0543054e-38
0.083220005 0.023940001 1.197 2.072853e-38
0.085500002 0.023940001 1.197 2.0913996e-38
0.087779999 0.023940001 1.197 2.0915791e-38
0.09043619 0.024040001 1.202 2.1003673e-38
0.092725717 0.024040001 1.202 2.0724572e-38
0.095015235 0.024040001 1.202 2.0444391e-38
0.097304761 0.024040001 1.202 1.9613197e-38
0.099594288 0.024040001 1.202 1.8780904e-38
0.10146 0.023940001 1.197 1.7306122e-38
0.10374 0.023940001 1.197 1.5914216e-38
0.10588286 0.022460001 1.123 1.3959456e-38
0.10802191 0.022460001 1.123 1.4234928e-38
0.11016095 0.022460001 1.123 1.4608339e-38
0.11270001 0.022540001 1.1270001 1.4982109e-38
0.11484668 0.022540001 1.1270001 1.5352392e-38
0.11699334 0.022540001 1.1270001 1.851469e-38
0.11914001 0.022540001 1.1270001 2.1745823e-38
0.12128668 0.022540001 1.1270001 2.1928806e-38
0.12343334 0.022540001 1.1270001 2.2203224e-38
0.039960004 0.024840001 1.1340001 1.6454701e-38
0.042008571 0.024774285 1.131 1.3424521e-38
0.044162858 0.024774285 1.131 1.3792254e-38
0.046317145 0.024774285 1.131 1.4063066e-38
0.048300002 0.024686668 1.1270001 1.3875778e-38
0.050267622 0.024599047 1.123 1.3780354e-38
0.052266669 0.024533333 1.12 1.3961514e-38
0.054399997 0.024533333 1.12 1.4143029e-38
0.056533333 0.024533333 1.12 1.4418534e-38
0.058666665 0.024533333 1.12 1.4602205e-38
0.060582861 0.024445714 1.1160001 1.5245054e-38
0.062933333 0.024533333 1.12 1.5979781e-38
0.065066665 0.024533333 1.12 1.6347167e-38
0.066960007 0.024445714 1.1160001 1.6806357e-38
0.069085717 0.024445714 1.1160001 1.699004e-38
0.078988574 0.026329523 1.202 1.7265562e-38
0.083220005 0.026219999 1.197 1.7541102e-38
0.085500002 0.026219999 1.197 1.7632945e-38
0.087779999 0.026219999 1.197 1.7632953e-38
0.09043619 0.026329523 1.202 1.7632944e-38
0.092725717 0.026329523 1.202 1.7632934e-38
0.095015235 0.026329523 1.202 1.7724751e-38
0.097304761 0.026329523 1.202 1.7357391e-38
0.099594288 0.026329523 1.202 1.6989994e-38
0.096720003 0.024445714 1.1160001 1.5796075e-38
0.10133334 0.024533333 1.12 1.5158605e-38
0.10346667 0.024533333 1.12 1.4791982e-38
0.10588286 0.024599047 1.123 1.4517574e-38
0.10802191 0.024599047 1.123 1.452262e-38
0.11016095 0.024599047 1.123 1.4527623e-38
0.11270001 0.024686668 1.1270001 1.5077899e-38
0.11484668 0.024686668 1.1270001 1.5640457e-38
0.11699334 0.024686668 1.1270001 1.8976734e-38
0.11956286 0.024774285 1.131 2.2204638e-38
0.12128668 0.024686668 1.1270001 2.2203592e-38
0.12343334 0.024686668 1.1270001 2.2201427e-38
0.039960004 0.027000003 1.1340001 1.6458287e-38
0.042008571 0.026928572 1.131 1.3334835e-38
0.044162858 0.026928572 1.131 1.3792968e-38
0.046317145 0.026928572 1.131 1.424746e-38
0.050267622 0.026738096 1.123 1.4061617e-38
0.052406665 0.026738096 1.123 1.4428603e-38
0.054399997 0.026666667 1.12 1.4788769e-38
0.056533333 0.026666667 1.12 1.4972798e-38
0.058666665 0.026666667 1.12 1.515539e-38
0.060800001 0.026666667 1.12 1.5246506e-38
0.062933333 0.026666667 1.12 1.5337652e-38
0.064834289 0.02657143 1.1160001 1.4877786e-38
0.066960007 0.02657143 1.1160001 1.4510441e-38
0.069085717 0.02657143 1.1160001 1.4510439e-38
0.071211427 0.02657143 1.1160001 1.4510439e-38
0.073337145 0.02657143 1.1160001 1.451044e-38
0.083220005 0.0285 1.197 1.4510454e-38
0.085500002 0.0285 1.197 1.4510455e-38
0.08162 0.0265 1.113 1.4418621e-38
0.083740003 0.0265 1.113 1.4418617e-38
0.085859999 0.0265 1.113 1.4694119e-38
0.087980002 0.0265 1.113 1.5061452e-38
0.090100005 0.0265 1.113 1.5153277e-38
0.092468575 0.02657143 1.1160001 1.5336934e-38
0.094594292 0.02657143 1.1160001 1.5520591e-38
0.096720003 0.02657143 1.1160001 1.5799325e-38
0.099200003 0.026666667 1.12 1.5710718e-38
0.10133334 0.026666667 1.12 1.5711793e-38
0.10346667 0.026666667 1.12 1.5348037e-38
0.10588286 0.026738096 1.123 1.5075058e-38
0.10802191 0.026738096 1.123 1.4710244e-38
0.11055334 0.026833337 1.1270001 1.4433999e-38
0.11270001 0.026833337 1.1270001 1.5174042e-38
0.11484668 0.026833337 1.1270001 1.6012468e-38
0.11740857 0.026928572 1.131 1.9346954e-38
0.11956286 0.026928572 1.131 2.2758518e-38
0.12171714 0.026928572 1.131 2.2478725e-38
0.12387143 0.026928572 1.131 2.2202141e-38
0.039960004 0.029160002 1.1340001 1.6554067e-38
0.042008571 0.029082857 1.131 1.3340214e-38
0.044280004 0.029160002 1.1340001 1.3792608e-38
0.046317145 0.029082857 1.131 1.4248543e-38
0.048471428 0.029082857 1.131 1.4155617e-38
0.050267622 0.028877143 1.123 1.4154545e-38
0.052406665 0.028877143 1.123 1.4336069e-38
0.054545715 0.028877143 1.123 1.4607989e-38
0.056533333 0.0288 1.12 1.4699467e-38
0.058666665 0.0288 1.12 1.4791297e-38
0.060800001 0.0288 1.12 1.4883844e-38
0.062708572 0.028697144 1.1160001 1.4976411e-38
0.064834289 0.028697144 1.1160001 1.4792754e-38
0.066960007 0.028697144 1.1160001 1.4517588e-38
0.069085717 0.028697144 1.1160001 1.4606537e-38
0.071211427 0.028697144 1.1160001 1.4787331e-38
0.073140003 0.028620001 1.113 1.4878801e-38
0.075259998 0.028620001 1.113 1.5062469e-38
0.077380002 0.028620001 1.113 1.5153943e-38
0.079500005 0.028620001 1.113 1.533761e-38
0.08162 0.028620001 1.113 1.5062816e-38
0.083740003 0.028620001 1.113 1.4879864e-38
0.085859999 0.028620001 1.113 1.515609e-38
0.087980002 0.028620001 1.113 1.5432671e-38
0.090342864 0.028697144 1.1160001 1.5341552e-38
0.092468575 0.028697144 1.1160001 1.5250819e-38
0.094594292 0.028697144 1.1160001 1.5252639e-38
0.097066663 0.0288 1.12 1.5162597e-38
0.099200003 0.0288 1.12 1.5254434e-38
0.10133334 0.0288 1.12 1.5346626e-38
0.10346667 0.0288 1.12 1.5073269e-38
0.10588286 0.028877143 1.123 1.4893195e-38
0.10802191 0.028877143 1.123 1.4526582e-38
0.11055334 0.028980002 1.1270001 1.424854e-38
0.1131 0.029082857 1.131 1.5262294e-38
0.11525429 0.029082857 1.131 1.6292644e-38
0.11740857 0.029082857 1.131 1.962498e-38
0.11956286 0.029082857 1.131 2.2945056e-38
0.12171714 0.029082857 1.131 2.2571264e-38
0.12387143 0.029082857 1.131 2.2296843e-38
0.039960004 0.031320002 1.1340001 1.6742043e-38
0.042120002 0.031320002 1.1340001 1.3338421e-38
0.044280004 0.031320002 1.1340001 1.3792248e-38
0.046440002 0.031320002 1.1340001 1.4340734e-38
0.048600003 0.031320002 1.1340001 1.4249242e-38
0.052406665 0.031016191 1.123 1.4335698e-38
0.054545715 0.031016191 1.123 1.4427172e-38
0.056684762 0.031016191 1.123 1.4427171e-38
0.058666665 0.030933332 1.12 1.4426806e-38
0.060800001 0.030933332 1.12 1.4518636e-38
0.062933333 0.030933332 1.12 1.4701964e-38
0.064834289 0.030822858 1.1160001 1.4609786e-38
0.066960007 0.030822858 1.1160001 1.4609417e-38
0.068900004 0.03074 1.113 1.4793076e-38
0.071211427 0.030822858 1.1160001 1.5068221e-38
0.073140003 0.03074 1.113 1.5343366e-38
0.075259998 0.03074 1.113 1.5709636e-38
0.077380002 0.03074 1.113 1.5892594e-38
0.079500005 0.03074 1.113 1.6168451e-38
0.08162 0.03074 1.113 1.580146e-38
0.083965711 0.030822858 1.1160001 1.5434833e-38
0.086091429 0.030822858 1.1160001 1.5619578e-38
0.088217147 0.030822858 1.1160001 1.5801455e-38
0.090342864 0.030822858 1.1160001 1.5527742e-38
0.092468575 0.030822858 1.1160001 1.525261e-38
0.094933331 0.030933332 1.12 1.4886002e-38
0.097066663 0.030933332 1.12 1.4611575e-38
0.099200003 0.030933332 1.12 1.4798478e-38
0.10133334 0.030933332 1.12 1.4982137e-38
0.10374381 0.031016191 1.123 1.4798454e-38
0.10588286 0.031016191 1.123 1.4709863e-38
0.10802191 0.031016191 1.123 1.4342895e-38
0.1131 0.031237142 1.131 1.5258753e-38
0.11525429 0.031237142 1.131 1.6572126e-38
0.11740857 0.031237142 1.131 1.9903009e-38
0.11956286 0.031237142 1.131 2.3220564e-38
0.12171714 0.031237142 1.131 2.2755645e-38
0.12387143 0.031237142 1.131 2.2386886e-38
0.042120002 0.033480003 1.1340001 1.3230082e-38
0.04443619 0.033598095 1.138 1.3698259e-38
0.046440002 0.033480003 1.1340001 1.4249614e-38
0.048600003 0.033480003 1.1340001 1.4156326e-38
0.050625715 0.033391427 1.131 1.4153811e-38
0.052593336 0.033273336 1.1270001 1.4245644e-38
0.054740004 0.033273336 1.1270001 1.4245639e-38
0.056684762 0.033155236 1.123 1.4335677e-38
0.058823813 0.033155236 1.123 1.4424996e-38
0.060800001 0.033066668 1.12 1.4517902e-38
0.062933333 0.033066668 1.12 1.461083e-38
0.065066665 0.033066668 1.12 1.4610131e-38
0.066960007 0.032948572 1.1160001 1.4607616e-38
0.069085717 0.032948572 1.1160001 1.4607612e-38
0.071211427 0.032948572 1.1160001 1.4699806e-38
0.073337145 0.032948572 1.1160001 1.5068225e-38
0.075259998 0.032860003 1.113 1.5432709e-38
0.077588573 0.032948572 1.1160001 1.5433439e-38
0.079714291 0.032948572 1.1160001 1.5525262e-38
0.081840008 0.032948572 1.1160001 1.5067149e-38
0.083965711 0.032948572 1.1160001 1.4518282e-38
0.086091429 0.032948572 1.1160001 1.5251884e-38
0.088533334 0.033066668 1.12 1.5983699e-38
0.090666659 0.033066668 1.12 1.5526317e-38
0.092799999 0.033066668 1.12 1.5070731e-38
0.094933331 0.033066668 1.12 1.4887066e-38
0.097066663 0.033066668 1.12 1.4611565e-38
0.099200003 0.033066668 1.12 1.4706277e-38
0.10160477 0.033155236 1.123 1.4891003e-38
0.10374381 0.033155236 1.123 1.4708748e-38
0.10879143 0.033391427 1.131 1.4251762e-38
0.11094572 0.033391427 1.131 1.4065259e-38
0.1131 0.033391427 1.131 1.5540764e-38
0.11525429 0.033391427 1.131 1.7127114e-38
0.11740857 0.033391427 1.131 2.0088486e-38
0.11956286 0.033391427 1.131 2.3036896e-38
0.12171714 0.033391427 1.131 2.257125e-38
0.12387143 0.033391427 1.131 2.2201783e-38
0.04660381 0.035765715 1.138 1.415525e-38
0.048600003 0.035640001 1.1340001 1.4155596e-38
0.050760005 0.035640001 1.1340001 1.4153804e-38
0.052780002 0.035545714 1.131 1.4154883e-38
0.054740004 0.035420001 1.1270001 1.4153444e-38
0.056886673 0.035420001 1.1270001 1.4336395e-38
0.058823813 0.035294287 1.123 1.4517552e-38
0.060800001 0.0352 1.12 1.4517549e-38
0.062933333 0.0352 1.12 1.4518636e-38
0.065066665 0.0352 1.12 1.4519006e-38
0.066960007 0.03507429 1.1160001 1.4608682e-38
0.069085717 0.03507429 1.1160001 1.4424645e-38
0.071211427 0.03507429 1.1160001 1.4333176e-38
0.073337145 0.03507429 1.1160001 1.4701242e-38
0.075259998 0.034979999 1.113 1.5157911e-38
0.077588573 0.03507429 1.1160001 1.506608e-38
0.079714291 0.03507429 1.1160001 1.4974959e-38
0.081840008 0.03507429 1.1160001 1.4333186e-38
0.08426667 0.0352 1.12 1.3690329e-38
0.086400002 0.0352 1.12 1.4976019e-38
0.088533334 0.0352 1.12 1.6260638e-38
0.090666659 0.0352 1.12 1.5616712e-38
0.092799999 0.0352 1.12 1.4976383e-38
0.094933331 0.0352 1.12 1.4793079e-38
0.097066663 0.0352 1.12 1.4704479e-38
0.099200003 0.0352 1.12 1.4705923e-38
0.10160477 0.035294287 1.123 1.4800257e-38
0.10374381 0.035294287 1.123 1.4526531e-38
0.10626 0.035420001 1.1270001 1.434359e-38
0.10879143 0.035545714 1.131 1.4160651e-38
0.11094572 0.035545714 1.131 1.406885e-38
0.1134 0.035640001 1.1340001 1.5823088e-38
0.11525429 0.035545714 1.131 1.7680288e-38
0.11772001 0.035640001 1.1340001 2.0273967e-38
0.11988001 0.035640001 1.1340001 2.2845704e-38
0.12171714 0.035545714 1.131 2.2478705e-38
0.044592384 0.038066667 1.1420001 1.3698221e-38
0.04660381 0.037933335 1.138 1.4157028e-38
0.048771426 0.037933335 1.138 1.4063389e-38
0.050760005 0.037800003 1.1340001 1.3970486e-38
0.052780002 0.037700001 1.131 1.4061971e-38
0.054934289 0.037700001 1.131 1.4153444e-38
0.056886673 0.037566669 1.1270001 1.4244559e-38
0.058823813 0.037433334 1.123 1.4426436e-38
0.060800001 0.037333332 1.12 1.4518272e-38
0.062933333 0.037333332 1.12 1.4518636e-38
0.065066665 0.037333332 1.12 1.4610119e-38
0.066960007 0.0372 1.1160001 1.4701586e-38
0.069085717 0.0372 1.1160001 1.4610458e-38
0.071211427 0.0372 1.1160001 1.4519352e-38
0.073337145 0.0372 1.1160001 1.4793436e-38
0.075462863 0.0372 1.1160001 1.5067144e-38
0.077588573 0.0372 1.1160001 1.4973869e-38
0.079714291 0.0372 1.1160001 1.4885987e-38
0.081840008 0.0372 1.1160001 1.4519729e-38
0.08426667 0.037333332 1.12 1.4245291e-38
0.086400002 0.037333332 1.12 1.5068932e-38
0.088533334 0.037333332 1.12 1.5895087e-38
0.090666659 0.037333332 1.12 1.5435546e-38
0.092799999 0.037333332 1.12 1.5067858e-38
0.094933331 0.037333332 1.12 1.4885635e-38
0.097066663 0.037333332 1.12 1.4614083e-38
0.099465713 0.037433334 1.123 1.4706285e-38
0.10160477 0.037433334 1.123 1.4801703e-38
0.10411334 0.037566669 1.1270001 1.4618027e-38
0.10663714 0.037700001 1.131 1.4527634e-38
0.10879143 0.037700001 1.131 1.4252134e-38
0.11124001 0.037800003 1.1340001 1.4072442e-38
0.1134 0.037800003 1.1340001 1.6100748e-38
0.11556 0.037800003 1.1340001 1.8050149e-38
0.11772001 0.037800003 1.1340001 2.0365459e-38
0.11988001 0.037800003 1.1340001 2.2572362e-38
0.042565715 0.040382858 1.146 1.3514564e-38
0.044592384 0.040241905 1.1420001 1.3786106e-38
0.046767622 0.040241905 1.1420001 1.4154165e-38
0.048771426 0.040100951 1.138 1.3971212e-38
0.050760005 0.039960004 1.1340001 1.3785747e-38
0.052920002 0.039960004 1.1340001 1.3968343e-38
0.054934289 0.039854284 1.131 1.4152372e-38
0.057088573 0.039854284 1.131 1.4244565e-38
0.059033338 0.039713338 1.1270001 1.4426798e-38
0.06096286 0.039572384 1.123 1.4518989e-38
0.06310191 0.039572384 1.123 1.4609394e-38
0.065066665 0.039466664 1.12 1.4700516e-38
0.067199998 0.039466664 1.12 1.4793783e-38
0.069333337 0.039466664 1.12 1.4794494e-38
0.071466669 0.039466664 1.12 1.4794152e-38
0.073600002 0.039466664 1.12 1.4885646e-38
0.075462863 0.039325718 1.1160001 1.4975671e-38
0.077866666 0.039466664 1.12 1.4882027e-38
0.079714291 0.039325718 1.1160001 1.4884905e-38
0.08213333 0.039466664 1.12 1.4795949e-38
0.08426667 0.039466664 1.12 1.4795223e-38
0.086400002 0.039466664 1.12 1.5161841e-38
0.088533334 0.039466664 1.12 1.5528818e-38
0.090666659 0.039466664 1.12 1.5345142e-38
0.092799999 0.039466664 1.12 1.5253677e-38
0.094933331 0.039466664 1.12 1.4886707e-38
0.097326666 0.039572384 1.123 1.4612649e-38
0.099465713 0.039572384 1.123 1.4706651e-38
0.10160477 0.039572384 1.123 1.4892099e-38
0.10411334 0.039713338 1.1270001 1.4801682e-38
0.10663714 0.039854284 1.131 1.4710931e-38
0.10908 0.039960004 1.1340001 1.443579e-38
0.11124001 0.039960004 1.1340001 1.4163556e-38
0.1134 0.039960004 1.1340001 1.6286579e-38
0.11556 0.039960004 1.1340001 1.8512557e-38
0.11772001 0.039960004 1.1340001 2.0457289e-38
0.11988001 0.039960004 1.1340001 2.2385451e-38
0.042565715 0.042565715 1.146 1.3697522e-38
0.044748571 0.042565715 1.146 1.3971925e-38
0.046767622 0.042417143 1.1420001 1.4154889e-38
0.048771426 0.042268571 1.138 1.4062347e-38
0.050939046 0.042268571 1.138 1.3876516e-38
0.052920002 0.042120002 1.1340001 1.3967988e-38
0.055080004 0.042120002 1.1340001 1.4151659e-38
0.057088573 0.042008571 1.131 1.4242418e-38
0.059033338 0.041860003 1.1270001 1.4425366e-38
0.06096286 0.041711427 1.123 1.4516838e-38
0.06310191 0.041711427 1.123 1.4700512e-38
0.065066665 0.0416 1.12 1.4793068e-38
0.067199998 0.0416 1.12 1.4978174e-38
0.069333337 0.0416 1.12 1.4977815e-38
0.071466669 0.0416 1.12 1.49764e-38
0.073600002 0.0416 1.12 1.5068256e-38
0.075733326 0.0416 1.12 1.5251899e-38
0.077866666 0.0416 1.12 1.4976007e-38
0.079999998 0.0416 1.12 1.4700511e-38
0.08213333 0.0416 1.12 1.4701598e-38
0.08426667 0.0416 1.12 1.4702667e-38
0.086400002 0.0416 1.12 1.4978886e-38
0.088533334 0.0416 1.12 1.5255461e-38
0.090909526 0.041711427 1.123 1.5254021e-38
0.093048573 0.041711427 1.123 1.5344791e-38
0.095187619 0.041711427 1.123 1.5254045e-38
0.097326666 0.041711427 1.123 1.5254064e-38
0.09982001 0.041860003 1.1270001 1.5073643e-38
0.10196667 0.041860003 1.1270001 1.4982495e-38
0.10448286 0.042008571 1.131 1.4801308e-38
0.10692 0.042120002 1.1340001 1.4618721e-38
0.10908 0.042120002 1.1340001 1.4344658e-38
0.11124001 0.042120002 1.1340001 1.4071e-38
0.1134 0.042120002 1.1340001 1.647205e-38
0.11525429 0.042008571 1.131 1.8974963e-38
0.11740857 0.042008571 1.131 2.0640954e-38
0.11956286 0.042008571 1.131 2.2385799e-38
0.038333338 0.044904765 1.1500001 2.0913514e-38
0.040523812 0.044904765 1.1500001 1.7393211e-38
0.042565715 0.044748571 1.146 1.3966211e-38
0.044748571 0.044748571 1.146 1.4059094e-38
0.046767622 0.044592384 1.1420001 1.4246002e-38
0.048771426 0.04443619 1.138 1.4153817e-38
0.050939046 0.04443619 1.138 1.4060538e-38
0.052920002 0.044280004 1.1340001 1.4058377e-38
0.055080004 0.044280004 1.1340001 1.4149855e-38
0.057240006 0.044280004 1.1340001 1.433317e-38
0.059242859 0.044162858 1.131 1.4517203e-38
0.061180007 0.044006672 1.1270001 1.4606887e-38
0.06310191 0.043850474 1.123 1.4792006e-38
0.065240949 0.043850474 1.123 1.4977842e-38
0.067379996 0.043850474 1.123 1.5252977e-38
0.06951905 0.043850474 1.123 1.5161129e-38
0.071466669 0.043733336 1.12 1.5161497e-38
0.073600002 0.043733336 1.12 1.5345897e-38
0.075733326 0.043733336 1.12 1.5620313e-38
0.077866666 0.043733336 1.12 1.5069645e-38
0.079999998 0.043733336 1.12 1.4610117e-38
0.08213333 0.043733336 1.12 1.4609768e-38
0.08426667 0.043733336 1.12 1.4610839e-38
0.086631432 0.043850474 1.123 1.4798092e-38
0.088770472 0.043850474 1.123 1.4979967e-38
0.090909526 0.043850474 1.123 1.516292e-38
0.093048573 0.043850474 1.123 1.543807e-38
0.095187619 0.043850474 1.123 1.5621745e-38
0.097673342 0.044006672 1.1270001 1.5897266e-38
0.09982001 0.044006672 1.1270001 1.5440615e-38
0.10196667 0.044006672 1.1270001 1.5073979e-38
0.10448286 0.044162858 1.131 1.4801331e-38
0.10692 0.044280004 1.1340001 1.4619453e-38
0.10908 0.044280004 1.1340001 1.434538e-38
0.11124001 0.044280004 1.1340001 1.4068136e-38
0.1134 0.044280004 1.1340001 1.6749716e-38
0.11556 0.044280004 1.1340001 1.9439883e-38
0.11772001 0.044280004 1.1340001 2.0916456e-38
0.038333338 0.047095243 1.1500001 2.2018051e-38
0.040629521 0.047218092 1.153 1.8130049e-38
0.042714287 0.047095243 1.1500001 1.4143066e-38
0.044748571 0.046931427 1.146 1.3965104e-38
0.046767622 0.046767622 1.1420001 1.3698573e-38
0.048771426 0.04660381 1.138 1.3879381e-38
0.050939046 0.04660381 1.138 1.4060888e-38
0.052920002 0.046440002 1.1340001 1.4151277e-38
0.055080004 0.046440002 1.1340001 1.4242041e-38
0.057240006 0.046440002 1.1340001 1.4425717e-38
0.059242859 0.046317145 1.131 1.4609397e-38
0.061180007 0.046153337 1.1270001 1.4700525e-38
0.063326672 0.046153337 1.1270001 1.4792024e-38
0.065240949 0.045989525 1.123 1.5067553e-38
0.067379996 0.045989525 1.123 1.5343033e-38
0.06951905 0.045989525 1.123 1.5160413e-38
0.071658097 0.045989525 1.123 1.48867e-38
0.073797144 0.045989525 1.123 1.4978178e-38
0.075733326 0.045866664 1.12 1.4977102e-38
0.077866666 0.045866664 1.12 1.4610119e-38
0.079999998 0.045866664 1.12 1.4334978e-38
0.08213333 0.045866664 1.12 1.4151673e-38
0.084492385 0.045989525 1.123 1.4060192e-38
0.086631432 0.045989525 1.123 1.443004e-38
0.088770472 0.045989525 1.123 1.4796309e-38
0.090909526 0.045989525 1.123 1.4887071e-38
0.093048573 0.045989525 1.123 1.5070378e-38
0.095526673 0.046153337 1.1270001 1.5254045e-38
0.097673342 0.046153337 1.1270001 1.5530277e-38
0.10017429 0.046317145 1.131 1.5256933e-38
0.10232858 0.046317145 1.131 1.4981791e-38
0.10476001 0.046440002 1.1340001 1.4893191e-38
0.10692 0.046440002 1.1340001 1.4804214e-38
0.10946476 0.04660381 1.138 1.4435426e-38
0.11163238 0.04660381 1.138 1.4157466e-38
0.1138 0.04660381 1.138 1.712173e-38
0.11596762 0.04660381 1.138 2.0088472e-38
0.11813524 0.04660381 1.138 2.1100483e-38
0.038433332 0.049414285 1.153 2.3211921e-38
0.040629521 0.049414285 1.153 1.8775051e-38
0.042714287 0.049285717 1.1500001 1.4419647e-38
0.044748571 0.049114283 1.146 1.3779636e-38
0.046767622 0.04894286 1.1420001 1.3238319e-38
0.04894286 0.04894286 1.1420001 1.3697147e-38
0.050939046 0.048771426 1.138 1.4153444e-38
0.053106666 0.048771426 1.138 1.4244911e-38
0.055080004 0.048600003 1.1340001 1.4336034e-38
0.057240006 0.048600003 1.1340001 1.4519352e-38
0.059242859 0.048471428 1.131 1.4703027e-38
0.061180007 0.048300002 1.1270001 1.4703033e-38
0.063326672 0.048300002 1.1270001 1.4794165e-38
0.065240949 0.048128571 1.123 1.5161164e-38
0.067379996 0.048128571 1.123 1.5527053e-38
0.06951905 0.048128571 1.123 1.5067858e-38
0.071658097 0.048128571 1.123 1.4701231e-38
0.073797144 0.048128571 1.123 1.4518635e-38
0.075936191 0.048128571 1.123 1.4426439e-38
0.078075238 0.048128571 1.123 1.4242408e-38
0.080214284 0.048128571 1.123 1.4060539e-38
0.082353331 0.048128571 1.123 1.3786119e-38
0.084492385 0.048128571 1.123 1.3601016e-38
0.086631432 0.048128571 1.123 1.4062348e-38
0.088770472 0.048128571 1.123 1.4612291e-38
0.090909526 0.048128571 1.123 1.4703057e-38
0.093380012 0.048300002 1.1270001 1.4794874e-38
0.095526673 0.048300002 1.1270001 1.4978527e-38
0.098020002 0.048471428 1.131 1.5163648e-38
0.10044 0.048600003 1.1340001 1.5073263e-38
0.1026 0.048600003 1.1340001 1.4982509e-38
0.10476001 0.048600003 1.1340001 1.4985028e-38
0.10692 0.048600003 1.1340001 1.4985011e-38
0.10946476 0.048771426 1.138 1.4617652e-38
0.11163238 0.048771426 1.138 1.4248942e-38
0.1138 0.048771426 1.138 1.7493744e-38
0.11596762 0.048771426 1.138 2.0734196e-38
0.11813524 0.048771426 1.138 2.1377783e-38
0.040770479 0.051789526 1.1570001 1.8592459e-38
0.042825714 0.051610474 1.153 1.4420723e-38
0.044904765 0.051476192 1.1500001 1.4146617e-38
0.046767622 0.051118098 1.1420001 1.3880091e-38
0.04894286 0.051118098 1.1420001 1.3971222e-38
0.050939046 0.050939046 1.138 1.4154165e-38
0.053106666 0.050939046 1.138 1.3877573e-38
0.055080004 0.050760005 1.1340001 1.3601356e-38
0.057240006 0.050760005 1.1340001 1.3968346e-38
0.059242859 0.050625715 1.131 1.433533e-38
0.061180007 0.050446671 1.1270001 1.4334612e-38
0.063326672 0.050446671 1.1270001 1.433426e-38
0.065240949 0.050267622 1.123 1.4884923e-38
0.067620009 0.050446671 1.1270001 1.5527762e-38
0.06951905 0.050267622 1.123 1.4884545e-38
0.071658097 0.050267622 1.123 1.4241332e-38
0.073797144 0.050267622 1.123 1.4241328e-38
0.075936191 0.050267622 1.123 1.4149489e-38
0.078075238 0.050267622 1.123 1.4058368e-38
0.080214284 0.050267622 1.123 1.3877937e-38
0.082353331 0.050267622 1.123 1.3877591e-38
0.084492385 0.050267622 1.123 1.3876525e-38
0.086631432 0.050267622 1.123 1.4426471e-38
0.089086674 0.050446671 1.1270001 1.4976775e-38
0.091233335 0.050446671 1.1270001 1.4793473e-38
0.093711428 0.050625715 1.131 1.4702324e-38
0.095865719 0.050625715 1.131 1.4795564e-38
0.098020002 0.050625715 1.131 1.4888855e-38
0.10044 0.050760005 1.1340001 1.4889594e-38
0.1026 0.050760005 1.1340001 1.4799559e-38
0.10476001 0.050760005 1.1340001 1.4709165e-38
0.10729714 0.050939046 1.138 1.4620177e-38
0.10946476 0.050939046 1.138 1.4433255e-38
0.11163238 0.050939046 1.138 1.4340778e-38
0.1138 0.050939046 1.138 1.7682088e-38
0.11637525 0.051118098 1.1420001 2.1104412e-38
0.11855049 0.051118098 1.1420001 2.1561456e-38
0.040770479 0.053993337 1.1570001 1.8318393e-38
0.046931427 0.053480003 1.146 1.4514683e-38
0.04894286 0.053293336 1.1420001 1.4332451e-38
0.050939046 0.053106666 1.138 1.414734e-38
0.053106666 0.053106666 1.138 1.3503411e-38
0.055080004 0.052920002 1.1340001 1.2860924e-38
0.057240006 0.052920002 1.1340001 1.34123e-38
0.059400003 0.052920002 1.1340001 1.4054431e-38
0.061397146 0.052780002 1.131 1.3962237e-38
0.063551433 0.052780002 1.131 1.3872198e-38
0.06547334 0.052593336 1.1270001 1.4700515e-38
0.067620009 0.052593336 1.1270001 1.5618152e-38
0.06976667 0.052593336 1.1270001 1.469908e-38
0.071913332 0.052593336 1.1270001 1.3874354e-38
0.073797144 0.052406665 1.123 1.3876507e-38
0.075936191 0.052406665 1.123 1.3967259e-38
0.078075238 0.052406665 1.123 1.3874342e-38
0.080214284 0.052406665 1.123 1.3785746e-38
0.082646675 0.052593336 1.1270001 1.3969428e-38
0.084492385 0.052406665 1.123 1.4152386e-38
0.086940005 0.052593336 1.1270001 1.4792369e-38
0.089402854 0.052780002 1.131 1.5434867e-38
0.091557145 0.052780002 1.131 1.4975698e-38
0.093711428 0.052780002 1.131 1.4609055e-38
0.09612 0.052920002 1.1340001 1.4612624e-38
0.098280005 0.052920002 1.1340001 1.4705188e-38
0.10044 0.052920002 1.1340001 1.4706276e-38
0.1026 0.052920002 1.1340001 1.4707364e-38
0.10476001 0.052920002 1.1340001 1.4433666e-38
0.10729714 0.053106666 1.138 1.4248177e-38
0.10946476 0.053106666 1.138 1.4338195e-38
0.11202477 0.053293336 1.1420001 1.4441228e-38
0.11420001 0.053293336 1.1420001 1.7962623e-38
0.11637525 0.053293336 1.1420001 2.1471763e-38
0.11855049 0.053293336 1.1420001 2.1837331e-38
0.046931427 0.055662859 1.146 1.5250796e-38
0.04894286 0.055468574 1.1420001 1.4882733e-38
0.051118098 0.055468574 1.1420001 1.4606868e-38
0.053106666 0.055274285 1.138 1.5249357e-38
0.055274285 0.055274285 1.138 1.5891847e-38
0.057441905 0.055274285 1.138 1.5891488e-38
0.059400003 0.055080004 1.1340001 1.589113e-38
0.061560001 0.055080004 1.1340001 1.5522711e-38
0.063720003 0.055080004 1.1340001 1.5154293e-38
0.065705717 0.054934289 1.131 1.5431593e-38
0.067860007 0.054934289 1.131 1.5617066e-38
0.06976667 0.054740004 1.1270001 1.4424291e-38
0.071913332 0.054740004 1.1270001 1.3323704e-38
0.074060008 0.054740004 1.1270001 1.3691769e-38
0.076206669 0.054740004 1.1270001 1.4060178e-38
0.078075238 0.054545715 1.123 1.3874346e-38
0.080500007 0.054740004 1.1270001 1.378539e-38
0.082646675 0.054740004 1.1270001 1.3693924e-38
0.084793337 0.054740004 1.1270001 1.3693922e-38
0.086940005 0.054740004 1.1270001 1.4244574e-38
0.089402854 0.054934289 1.131 1.4795236e-38
0.091557145 0.054934289 1.131 1.4701615e-38
0.093711428 0.054934289 1.131 1.460798e-38
0.09612 0.055080004 1.1340001 1.4611921e-38
0.098280005 0.055080004 1.1340001 1.4705551e-38
0.10044 0.055080004 1.1340001 1.4706271e-38
0.1026 0.055080004 1.1340001 1.4707366e-38
0.10512953 0.055274285 1.138 1.443152e-38
0.10729714 0.055274285 1.138 1.4247824e-38
0.10946476 0.055274285 1.138 1.4616218e-38
0.11202477 0.055468574 1.1420001 1.5093051e-38
0.11420001 0.055468574 1.1420001 1.8331764e-38
0.11637525 0.055468574 1.1420001 2.1655801e-38
0.11855049 0.055468574 1.1420001 2.1836983e-38
0.041052382 0.058804765 1.1650001 1.8963036e-38
0.047095243 0.058047622 1.1500001 1.5987275e-38
0.049114283 0.057845715 1.146 1.5525228e-38
0.051118098 0.057643812 1.1420001 1.5076485e-38
0.053293336 0.057643812 1.1420001 1.701941e-38
0.055274285 0.057441905 1.138 1.9039432e-38
0.057441905 0.057441905 1.138 1.8396584e-38
0.059609525 0.057441905 1.138 1.7750832e-38
0.061560001 0.057240006 1.1340001 1.7105081e-38
0.063720003 0.057240006 1.1340001 1.6542229e-38
0.065705717 0.057088573 1.131 1.6071572e-38
0.067860007 0.057088573 1.131 1.5704234e-38
0.070014283 0.057088573 1.131 1.423487e-38
0.072168574 0.057088573 1.131 1.2773403e-38
0.074060008 0.056886673 1.1270001 1.341052e-38
0.076206669 0.056886673 1.1270001 1.4151291e-38
0.078353338 0.056886673 1.1270001 1.3966534e-38
0.080500007 0.056886673 1.1270001 1.3785746e-38
0.082940005 0.057088573 1.131 1.3510252e-38
0.084793337 0.056886673 1.1270001 1.3235463e-38
0.087248571 0.057088573 1.131 1.3695359e-38
0.089402854 0.057088573 1.131 1.4245299e-38
0.091557145 0.057088573 1.131 1.4427897e-38
0.093960002 0.057240006 1.1340001 1.4611212e-38
0.09612 0.057240006 1.1340001 1.470305e-38
0.098280005 0.057240006 1.1340001 1.4795238e-38
0.10044 0.057240006 1.1340001 1.4703756e-38
0.10296191 0.057441905 1.138 1.4707003e-38
0.10512953 0.057441905 1.138 1.4430797e-38
0.10729714 0.057441905 1.138 1.42489e-38
0.10984953 0.057643812 1.1420001 1.4986434e-38
0.11202477 0.057643812 1.1420001 1.5736258e-38
0.1146 0.057845715 1.146 1.8793091e-38
0.11678286 0.057845715 1.146 2.1929864e-38
0.11938097 0.058047622 1.1500001 2.1928805e-38
0.038966667 0.061233331 1.169 2.183547e-38
0.041052382 0.061023813 1.1650001 1.8961237e-38
0.04327143 0.061023813 1.1650001 1.6181023e-38
0.047095243 0.060238097 1.1500001 1.8027028e-38
0.049114283 0.060028572 1.146 1.7658975e-38
0.051297143 0.060028572 1.146 1.7199141e-38
0.053293336 0.05981905 1.1420001 1.896309e-38
0.055274285 0.059609525 1.138 2.0732358e-38
0.057441905 0.059609525 1.138 1.9714993e-38
0.059609525 0.059609525 1.138 1.8789397e-38
0.061777141 0.059609525 1.138 1.8690681e-38
0.063720003 0.059400003 1.1340001 1.8500192e-38
0.065880001 0.059400003 1.1340001 1.8957933e-38
0.068039998 0.059400003 1.1340001 1.9507511e-38
0.070200004 0.059400003 1.1340001 1.7839764e-38
0.072168574 0.059242859 1.131 1.6172387e-38
0.074322857 0.059242859 1.131 1.4977819e-38
0.076477148 0.059242859 1.131 1.3691752e-38
0.078631431 0.059242859 1.131 1.3785012e-38
0.080785714 0.059242859 1.131 1.3970132e-38
0.082940005 0.059242859 1.131 1.3787192e-38
0.085094288 0.059242859 1.131 1.3696436e-38
0.087248571 0.059242859 1.131 1.4155258e-38
0.089639999 0.059400003 1.1340001 1.4614433e-38
0.091800004 0.059400003 1.1340001 1.4703756e-38
0.093960002 0.059400003 1.1340001 1.4799549e-38
0.09612 0.059400003 1.1340001 1.4798843e-38
0.098280005 0.059400003 1.1340001 1.4890307e-38
0.10044 0.059400003 1.1340001 1.4798459e-38
0.10296191 0.059609525 1.138 1.470664e-38
0.10512953 0.059609525 1.138 1.443115e-38
0.10767429 0.05981905 1.1420001 1.4158498e-38
0.10984953 0.05981905 1.1420001 1.5077198e-38
0.11241715 0.060028572 1.146 1.6012125e-38
0.1146 0.060028572 1.146 1.8886e-38
0.11678286 0.060028572 1.146 2.1836585e-38
0.11938097 0.060238097 1.1500001 2.1927357e-38
0.12157144 0.060238097 1.1500001 2.2110314e-38
0.038966667 0.06346 1.169 2.1834401e-38
0.041052382 0.06324286 1.1650001 1.9051301e-38
0.04327143 0.06324286 1.1650001 1.6298019e-38
0.047218092 0.062591426 1.153 2.0156534e-38
0.049285717 0.062428575 1.1500001 1.9788831e-38
0.051297143 0.062211428 1.146 1.9429422e-38
0.053480003 0.062211428 1.146 2.0907083e-38
0.055468574 0.061994288 1.1420001 2.237285e-38
0.057441905 0.061777141 1.138 2.1083553e-38
0.059609525 0.061777141 1.138 1.9889653e-38
0.061777141 0.061777141 1.138 2.0165124e-38
0.063720003 0.061560001 1.1340001 2.0536058e-38
0.065880001 0.061560001 1.1340001 2.1917544e-38
0.068039998 0.061560001 1.1340001 2.3292214e-38
0.070200004 0.061560001 1.1340001 2.1453001e-38
0.072360002 0.061560001 1.1340001 1.9685131e-38
0.074519999 0.061560001 1.1340001 1.6438925e-38
0.076680005 0.061560001 1.1340001 1.3317589e-38
0.078840002 0.061560001 1.1340001 1.3686001e-38
0.081 0.061560001 1.1340001 1.4147697e-38
0.083160006 0.061560001 1.1340001 1.4150215e-38
0.085094288 0.061397146 1.131 1.4150941e-38
0.087480001 0.061560001 1.1340001 1.451901e-38
0.089639999 0.061560001 1.1340001 1.498177e-38
0.091800004 0.061560001 1.1340001 1.497997e-38
0.093960002 0.061560001 1.1340001 1.4981052e-38
0.09612 0.061560001 1.1340001 1.4982135e-38
0.098280005 0.061560001 1.1340001 1.5073965e-38
0.10079429 0.061777141 1.138 1.4890289e-38
0.10296191 0.061777141 1.138 1.4706981e-38
0.10549906 0.061994288 1.1420001 1.4340001e-38
0.10805143 0.062211428 1.146 1.4065228e-38
0.11023428 0.062211428 1.146 1.5168347e-38
0.11241715 0.062211428 1.146 1.6293028e-38
0.1146 0.062211428 1.146 1.8978913e-38
0.11719049 0.062428575 1.1500001 2.174583e-38
0.11938097 0.062428575 1.1500001 2.2015611e-38
0.041193336 0.065686665 1.169 1.9053835e-38
0.04327143 0.065461911 1.1650001 1.61083e-38
0.047218092 0.064787619 1.153 2.0080194e-38
0.049285717 0.064619049 1.1500001 2.0631197e-38
0.051476192 0.064619049 1.1500001 2.1090754e-38
0.053480003 0.06439428 1.146 2.1917655e-38
0.055468574 0.064169526 1.1420001 2.2653029e-38
0.057441905 0.063944757 1.138 2.08823e-38
0.059609525 0.063944757 1.138 1.9126655e-38
0.061777141 0.063944757 1.138 2.0158361e-38
0.063944757 0.063944757 1.138 2.1176457e-38
0.065880001 0.063720003 1.1340001 2.2287466e-38
0.068039998 0.063720003 1.1340001 2.3301618e-38
0.070200004 0.063720003 1.1340001 2.2100598e-38
0.072360002 0.063720003 1.1340001 2.0993823e-38
0.074519999 0.063720003 1.1340001 1.866162e-38
0.076680005 0.063720003 1.1340001 1.6439631e-38
0.078840002 0.063720003 1.1340001 1.6165201e-38
0.081 0.063720003 1.1340001 1.5890771e-38
0.083160006 0.063720003 1.1340001 1.5523429e-38
0.085320003 0.063720003 1.1340001 1.5248297e-38
0.087480001 0.063720003 1.1340001 1.5068587e-38
0.089639999 0.063720003 1.1340001 1.4890287e-38
0.091800004 0.063720003 1.1340001 1.4981037e-38
0.093960002 0.063720003 1.1340001 1.5163633e-38
0.09612 0.063720003 1.1340001 1.5072516e-38
0.098626666 0.063944757 1.138 1.5073594e-38
0.10079429 0.063944757 1.138 1.4981402e-38
0.10332382 0.064169526 1.1420001 1.4796287e-38
0.10549906 0.064169526 1.1420001 1.4522207e-38
0.10805143 0.06439428 1.146 1.4240649e-38
0.11023428 0.06439428 1.146 1.5445679e-38
0.11241715 0.06439428 1.146 1.6665767e-38
0.11500001 0.064619049 1.1500001 1.9349126e-38
0.11719049 0.064619049 1.1500001 2.2022774e-38
0.11938097 0.064619049 1.1500001 2.2201081e-38
0.041052382 0.067680955 1.1650001 1.9056699e-38
0.04327143 0.067680955 1.1650001 1.5933237e-38
0.047218092 0.066983812 1.153 2.0076615e-38
0.049414285 0.066983812 1.153 2.1463113e-38
0.051476192 0.066809535 1.1500001 2.284174e-38
0.053480003 0.066577144 1.146 2.2935028e-38
0.055468574 0.06634476 1.1420001 2.3024686e-38
0.057643812 0.06634476 1.1420001 2.0681421e-38
0.059609525 0.066112377 1.138 1.848706e-38
0.061777141 0.066112377 1.138 2.0151943e-38
0.063944757 0.066112377 1.138 2.1919783e-38
0.066112377 0.066112377 1.138 2.2657703e-38
0.068279997 0.066112377 1.138 2.3391676e-38
0.070200004 0.065880001 1.1340001 2.2839951e-38
0.072360002 0.065880001 1.1340001 2.2282436e-38
0.074519999 0.065880001 1.1340001 2.0976246e-38
0.076680005 0.065880001 1.1340001 1.9679047e-38
0.078840002 0.065880001 1.1340001 1.8657354e-38
0.081 0.065880001 1.1340001 1.7731805e-38
0.083160006 0.065880001 1.1340001 1.6989927e-38
0.085320003 0.065880001 1.1340001 1.6349955e-38
0.087480001 0.065880001 1.1340001 1.5618508e-38
0.089639999 0.065880001 1.1340001 1.488311e-38
0.091800004 0.065880001 1.1340001 1.5066426e-38
0.093960002 0.065880001 1.1340001 1.5345519e-38
0.096459046 0.066112377 1.138 1.5254758e-38
0.098626666 0.066112377 1.138 1.516364e-38
0.10079429 0.066112377 1.138 1.5072879e-38
0.10332382 0.06634476 1.1420001 1.4980322e-38
0.10586857 0.066577144 1.146 1.4704453e-38
0.10805143 0.066577144 1.146 1.4428278e-38
0.11023428 0.066577144 1.146 1.5722993e-38
0.11280953 0.066809535 1.1500001 1.7035992e-38
0.11500001 0.066809535 1.1500001 1.9719708e-38
0.11719049 0.066809535 1.1500001 2.2389047e-38
0.04327143 0.069900006 1.1650001 1.5730911e-38
0.047381908 0.069420002 1.1570001 1.7777509e-38
0.049414285 0.069179997 1.153 1.9345889e-38
0.051476192 0.069000006 1.1500001 2.1006117e-38
0.053480003 0.06876 1.146 2.1833728e-38
0.055468574 0.068520002 1.1420001 2.2753494e-38
0.057643812 0.068520002 1.1420001 2.0805553e-38
0.059609525 0.068279997 1.138 1.894985e-38
0.061777141 0.068279997 1.138 2.0802364e-38
0.063944757 0.068279997 1.138 2.2663468e-38
0.066112377 0.068279997 1.138 2.2933953e-38
0.068279997 0.068279997 1.138 2.3299856e-38
0.070447616 0.068279997 1.138 2.3024347e-38
0.072615236 0.068279997 1.138 2.2836364e-38
0.074519999 0.068039998 1.1340001 2.2188847e-38
0.076680005 0.068039998 1.1340001 2.1541647e-38
0.078840002 0.068039998 1.1340001 2.0989154e-38
0.081 0.068039998 1.1340001 2.0528503e-38
0.083160006 0.068039998 1.1340001 1.9693693e-38
0.085320003 0.068039998 1.1340001 1.8950758e-38
0.087480001 0.068039998 1.1340001 1.7286599e-38
0.089639999 0.068039998 1.1340001 1.5622815e-38
0.091800004 0.068039998 1.1340001 1.5525615e-38
0.094291434 0.068279997 1.138 1.5527404e-38
0.096459046 0.068279997 1.138 1.5346959e-38
0.098626666 0.068279997 1.138 1.5162925e-38
0.10079429 0.068279997 1.138 1.5073598e-38
0.10332382 0.068520002 1.1420001 1.4983556e-38
0.10586857 0.06876 1.146 1.4707692e-38
0.10842858 0.069000006 1.1500001 1.4432236e-38
0.11061905 0.069000006 1.1500001 1.6003177e-38
0.11280953 0.069000006 1.1500001 1.7589887e-38
0.1153 0.069179997 1.153 1.9995943e-38
0.11749619 0.069179997 1.153 2.2479812e-38
0.04327143 0.07211905 1.1650001 1.5638331e-38
0.045334287 0.07187143 1.161 1.5520657e-38
0.047381908 0.07162381 1.1570001 1.5465426e-38
0.049585715 0.07162381 1.1570001 1.7313272e-38
0.051610474 0.07137619 1.153 1.9155034e-38
0.053666674 0.071190484 1.1500001 2.0813485e-38
0.055662859 0.070942864 1.146 2.2557609e-38
0.057643812 0.070695244 1.1420001 2.0996015e-38
0.05981905 0.070695244 1.1420001 1.9433414e-38
0.061777141 0.070447616 1.138 2.1360923e-38
0.063944757 0.070447616 1.138 2.3399598e-38
0.066112377 0.070447616 1.138 2.330238e-38
0.068279997 0.070447616 1.138 2.3209464e-38
0.070447616 0.070447616 1.138 2.3300578e-38
0.072615236 0.070447616 1.138 2.3394564e-38
0.074782856 0.070447616 1.138 2.3396715e-38
0.076950483 0.070447616 1.138 2.3394536e-38
0.079118095 0.070447616 1.138 2.3392359e-38
0.081 0.070200004 1.1340001 2.3390917e-38
0.083160006 0.070200004 1.1340001 2.2471118e-38
0.085320003 0.070200004 1.1340001 2.1534426e-38
0.087480001 0.070200004 1.1340001 1.8952227e-38
0.089956194 0.070447616 1.138 1.6359301e-38
0.092123814 0.070447616 1.138 1.5985134e-38
0.094291434 0.070447616 1.138 1.5711434e-38
0.096459046 0.070447616 1.138 1.5439169e-38
0.098626666 0.070447616 1.138 1.5162571e-38
0.10368571 0.070942864 1.146 1.498319e-38
0.1062381 0.071190484 1.1500001 1.4709839e-38
0.10842858 0.071190484 1.1500001 1.4432595e-38
0.11061905 0.071190484 1.1500001 1.6283353e-38
0.11280953 0.071190484 1.1500001 1.8144133e-38
0.1153 0.07137619 1.153 2.0364363e-38
0.11749619 0.07137619 1.153 2.2571645e-38
0.045334287 0.074082859 1.161 1.5176211e-38
0.047545712 0.074082859 1.161 1.4163536e-38
0.049757142 0.074082859 1.161 1.5081918e-38
0.051610474 0.073572382 1.153 1.6000319e-38
0.053666674 0.073380955 1.1500001 1.7762459e-38
0.055662859 0.07312572 1.146 1.952487e-38
0.057643812 0.072870485 1.1420001 1.9148519e-38
0.05981905 0.072870485 1.1420001 1.8772624e-38
0.061777141 0.072615236 1.138 2.0350386e-38
0.063944757 0.072615236 1.138 2.1932033e-38
0.066112377 0.072615236 1.138 2.2474075e-38
0.068279997 0.072615236 1.138 2.3118354e-38
0.070447616 0.072615236 1.138 2.3026873e-38
0.072615236 0.072615236 1.138 2.3032257e-38
0.074782856 0.072615236 1.138 2.302939e-38
0.076950483 0.072615236 1.138 2.3027591e-38
0.079118095 0.072615236 1.138 2.3208386e-38
0.081 0.072360002 1.1340001 2.3403202e-38
0.083160006 0.072360002 1.1340001 2.2655269e-38
0.085620955 0.072615236 1.138 2.2005878e-38
0.087480001 0.072360002 1.1340001 1.9320321e-38
0.089956194 0.072615236 1.138 1.6636968e-38
0.092123814 0.072615236 1.138 1.5892923e-38
0.094291434 0.072615236 1.138 1.5252615e-38
0.0967981 0.072870485 1.1420001 1.5071126e-38
0.098973334 0.072870485 1.1420001 1.488671e-38
0.10150286 0.07312572 1.146 1.4889193e-38
0.10368571 0.07312572 1.146 1.4799514e-38
0.1062381 0.073380955 1.1500001 1.4432535e-38
0.10842858 0.073380955 1.1500001 1.3974136e-38
0.11061905 0.073380955 1.1500001 1.6285152e-38
0.11280953 0.073380955 1.1500001 1.8606902e-38
0.1153 0.073572382 1.153 2.0548395e-38
0.11749619 0.073572382 1.153 2.2387971e-38
0.045334287 0.076294288 1.161 1.4888132e-38
0.047545712 0.076294288 1.161 1.2955306e-38
0.049757142 0.076294288 1.161 1.2951383e-38
