# .PCD v0.7 - Point Cloud Data file format
VERSION 0.7
FIELDS x y z rgb
SIZE 4 4 4 4
TYPE F F F F
COUNT 1 1 1 1
WIDTH 973
HEIGHT 1
VIEWPOINT 0 0 0 1 0 0 0
POINTS 973
DATA ascii
-0.14409143 -0.057782859 0.76800001 8.8508351e-39
-0.14244285 -0.057707619 0.76700002 9.6748379e-39
-0.14098191 -0.057707619 0.76700002 1.0594984e-38
-0.13915715 -0.057557147 0.76500005 1.0413461e-38
-0.13806 -0.057707619 0.76700002 1.0322334e-38
-0.13659905 -0.057707619 0.76700002 1.1709187e-38
-0.13531429 -0.057782859 0.76800001 1.3179977e-38
-0.13249715 -0.059137143 0.78600001 8.9455026e-39
-0.131 -0.059137143 0.78600001 8.5727783e-39
-0.12983239 -0.059287623 0.78800005 8.2043475e-39
-0.12833142 -0.059287623 0.78800005 1.0131803e-38
-0.12699144 -0.059362859 0.78900003 1.2079027e-38
-0.12548856 -0.059362859 0.78900003 1.4014771e-38
-0.18473428 -0.057126667 0.77900004 1.1805331e-38
-0.18325049 -0.057126667 0.77900004 1.3743956e-38
-0.18200001 -0.0572 0.78000003 1.5666747e-38
-0.18028286 -0.057126667 0.77900004 1.6034433e-38
-0.17879906 -0.057126667 0.77900004 1.6502199e-38
-0.17686 -0.056980003 0.77700001 1.1706645e-38
-0.17492858 -0.056833334 0.77500004 6.8996181e-39
-0.17345239 -0.056833334 0.77500004 6.0738035e-39
-0.17197619 -0.056833334 0.77500004 5.1561954e-39
-0.17006001 -0.05668667 0.77300006 6.9150898e-39
-0.16836953 -0.056613334 0.77200001 8.6635614e-39
-0.16689906 -0.056613334 0.77200001 9.8653248e-39
-0.16542856 -0.056613334 0.77200001 1.1065272e-38
-0.16353334 -0.056466669 0.77000004 1.1799586e-38
-0.16206668 -0.056466669 0.77000004 1.2626108e-38
-0.16060001 -0.056466669 0.77000004 1.3366894e-38
-0.15872 -0.05632 0.76800001 1.4195585e-38
-0.15725714 -0.05632 0.76800001 1.410341e-38
-0.15579428 -0.05632 0.76800001 1.4011531e-38
-0.15433143 -0.05632 0.76800001 8.0924033e-39
-0.15286858 -0.05632 0.76800001 2.2235776e-39
-0.15140571 -0.05632 0.76800001 7.8413649e-39
-0.14994286 -0.05632 0.76800001 1.3560631e-38
-0.14848 -0.05632 0.76800001 1.3285121e-38
-0.14701714 -0.05632 0.76800001 1.3091404e-38
-0.14555429 -0.05632 0.76800001 9.3024708e-39
-0.14409143 -0.05632 0.76800001 5.6226008e-39
-0.14262857 -0.05632 0.76800001 7.6519584e-39
-0.14116572 -0.05632 0.76800001 9.6784238e-39
-0.13952096 -0.056246668 0.76700002 9.9546351e-39
-0.13824001 -0.05632 0.76800001 1.0323757e-38
-0.13677713 -0.05632 0.76800001 1.1986826e-38
-0.13454857 -0.056613334 0.77200001 1.2626089e-38
-0.12882 -0.058006667 0.79100001 9.6744273e-39
-0.12731333 -0.058006667 0.79100001 1.1528375e-38
-0.12580666 -0.058006667 0.79100001 1.3550567e-38
-0.18497142 -0.055714291 0.78000003 1.106561e-38
-0.18348572 -0.055714291 0.78000003 1.3191494e-38
-0.18200001 -0.055714291 0.78000003 1.5391586e-38
-0.18051429 -0.055714291 0.78000003 1.5758554e-38
-0.17879906 -0.055642858 0.77900004 1.6223803e-38
-0.17686 -0.055500001 0.77700001 1.1342864e-38
-0.17538001 -0.055500001 0.77700001 6.5308258e-39
-0.17345239 -0.055357147 0.77500004 6.4300192e-39
-0.17197619 -0.055357147 0.77500004 6.44906e-39
-0.17050001 -0.055357147 0.77500004 9.0351899e-39
-0.16858763 -0.05521429 0.77300006 1.1609815e-38
-0.16689906 -0.055142857 0.77200001 1.1062034e-38
-0.16542856 -0.055142857 0.77200001 1.0601783e-38
-0.1639581 -0.055142857 0.77200001 1.3094616e-38
-0.16206668 -0.055000003 0.77000004 1.5666363e-38
-0.16060001 -0.055000003 0.77000004 1.493203e-38
-0.15913334 -0.055000003 0.77000004 1.4288847e-38
-0.15766667 -0.055000003 0.77000004 1.4288872e-38
-0.15620001 -0.055000003 0.77000004 1.4287401e-38
-0.15473333 -0.055000003 0.77000004 8.6538322e-39
-0.15326667 -0.055000003 0.77000004 3.1387026e-39
-0.15180001 -0.055000003 0.77000004 8.0260967e-39
-0.14994286 -0.054857146 0.76800001 1.3000289e-38
-0.14848 -0.054857146 0.76800001 1.2458252e-38
-0.14740001 -0.055000003 0.77000004 1.1891807e-38
-0.14555429 -0.054857146 0.76800001 7.1798498e-39
-0.14409143 -0.054857146 0.76800001 2.4973213e-39
-0.14262857 -0.054857146 0.76800001 5.6294181e-39
-0.14116572 -0.054857146 0.76800001 8.756836e-39
-0.13952096 -0.054785714 0.76700002 9.4958136e-39
-0.13824001 -0.054857146 0.76800001 1.0325196e-38
-0.13601905 -0.055142857 0.77200001 1.4100842e-38
-0.13454857 -0.055142857 0.77200001 1.1887097e-38
-0.12731333 -0.056499999 0.79100001 1.0971244e-38
-0.18395621 -0.054367624 0.78200006 1.2730869e-38
-0.18246667 -0.054367624 0.78200006 1.5024948e-38
-0.18051429 -0.054228574 0.78000003 1.5393352e-38
-0.17879906 -0.054159053 0.77900004 1.5853572e-38
-0.17686 -0.054019999 0.77700001 1.1433956e-38
-0.17538001 -0.054019999 0.77700001 6.9889116e-39
-0.17345239 -0.053880952 0.77500004 6.9885613e-39
-0.17197619 -0.053880952 0.77500004 7.0994362e-39
-0.17050001 -0.053880952 0.77500004 9.4079059e-39
-0.16858763 -0.05374191 0.77300006 1.1708094e-38
-0.16689906 -0.053672384 0.77200001 1.0877265e-38
-0.16542856 -0.053672384 0.77200001 1.0138651e-38
-0.1639581 -0.053672384 0.77200001 1.2820192e-38
-0.16206668 -0.053533334 0.77000004 1.5485559e-38
-0.16060001 -0.053533334 0.77000004 1.4011871e-38
-0.15913334 -0.053533334 0.77000004 1.2538226e-38
-0.15766667 -0.053533334 0.77000004 1.3093932e-38
-0.15620001 -0.053533334 0.77000004 1.3645276e-38
-0.15473333 -0.053533334 0.77000004 8.2915251e-39
-0.15326667 -0.053533334 0.77000004 2.951803e-39
-0.15180001 -0.053533334 0.77000004 6.1793283e-39
-0.15033334 -0.053533334 0.77000004 9.3178977e-39
-0.14886668 -0.053533334 0.77000004 1.023448e-38
-0.14740001 -0.053533334 0.77000004 1.1151387e-38
-0.14593334 -0.053533334 0.77000004 7.9213496e-39
-0.14446667 -0.053533334 0.77000004 4.6066636e-39
-0.14300001 -0.053533334 0.77000004 6.4537796e-39
-0.14153333 -0.053533334 0.77000004 8.2947845e-39
-0.13970286 -0.053394284 0.76800001 9.7763395e-39
-0.13766763 -0.05374191 0.77300006 1.2169086e-38
-0.13654761 -0.053880952 0.77500004 1.3183567e-38
-0.13507144 -0.053880952 0.77500004 1.2166548e-38
-0.13394001 -0.054019999 0.77700001 1.124244e-38
-0.13280097 -0.054159053 0.77900004 7.7419148e-39
-0.18395621 -0.052878097 0.78200006 1.2270264e-38
-0.18293335 -0.053013336 0.78400004 1.474657e-38
-0.18097715 -0.052878097 0.78200006 1.5110661e-38
-0.17902859 -0.052742857 0.78000003 1.5484799e-38
-0.17731525 -0.05267524 0.77900004 1.1433615e-38
-0.17538001 -0.052540001 0.77700001 7.4488178e-39
-0.17389999 -0.052540001 0.77700001 7.5471147e-39
-0.17242 -0.052540001 0.77700001 7.7430092e-39
-0.17050001 -0.052404761 0.77500004 9.7806373e-39
-0.16858763 -0.052269526 0.77300006 1.1798855e-38
-0.16711524 -0.052269526 0.77300006 1.0776816e-38
-0.16564287 -0.052269526 0.77300006 9.772385e-39
-0.1639581 -0.052201904 0.77200001 1.2546124e-38
-0.16248761 -0.052201904 0.77200001 1.5300465e-38
-0.16101715 -0.052201904 0.77200001 1.298879e-38
-0.15913334 -0.052066669 0.77000004 1.0789414e-38
-0.15766667 -0.052066669 0.77000004 1.1898987e-38
-0.15620001 -0.052066669 0.77000004 1.3092456e-38
-0.15473333 -0.052066669 0.77000004 7.9291885e-39
-0.15326667 -0.052066669 0.77000004 2.8635296e-39
-0.15180001 -0.052066669 0.77000004 4.2407047e-39
-0.15033334 -0.052066669 0.77000004 5.7276715e-39
-0.14886668 -0.052066669 0.77000004 8.1168504e-39
-0.14740001 -0.052066669 0.77000004 1.0502058e-38
-0.14593334 -0.052066669 0.77000004 8.6628327e-39
-0.14446667 -0.052066669 0.77000004 6.8225411e-39
-0.14300001 -0.052066669 0.77000004 7.2784956e-39
-0.14153333 -0.052066669 0.77000004 7.8374007e-39
-0.14006667 -0.052066669 0.77000004 1.0056878e-38
-0.13896 -0.052201904 0.77200001 1.2259132e-38
-0.13802381 -0.052404761 0.77500004 1.2257334e-38
-0.13654761 -0.052404761 0.77500004 1.2259833e-38
-0.13507144 -0.052404761 0.77500004 1.2537836e-38
-0.13394001 -0.052540001 0.77700001 1.2807562e-38
-0.13246001 -0.052540001 0.77700001 7.2554204e-39
-0.18293335 -0.051520005 0.78400004 1.4649712e-38
-0.17902859 -0.051257145 0.78000003 1.5208221e-38
-0.17731525 -0.051191431 0.77900004 1.1804202e-38
-0.17583144 -0.051191431 0.77900004 8.4597383e-39
-0.17389999 -0.051059999 0.77700001 7.8208359e-39
-0.17242 -0.051059999 0.77700001 7.2845576e-39
-0.17094 -0.051059999 0.77700001 8.2093978e-39
-0.16902381 -0.050928574 0.77500004 9.2263873e-39
-0.16711524 -0.050797146 0.77300006 9.8674267e-39
-0.16564287 -0.050797146 0.77300006 1.0508504e-38
-0.16417049 -0.050797146 0.77300006 1.2263445e-38
-0.16248761 -0.050731428 0.77200001 1.4105542e-38
-0.16101715 -0.050731428 0.77200001 1.2813036e-38
-0.15954667 -0.050731428 0.77200001 1.1612356e-38
-0.15807618 -0.050731428 0.77200001 1.2263452e-38
-0.15660572 -0.050731428 0.77200001 1.2907339e-38
-0.15473333 -0.0506 0.77000004 8.9429495e-39
-0.15326667 -0.0506 0.77000004 4.9793081e-39
-0.15180001 -0.0506 0.77000004 5.8083317e-39
-0.15033334 -0.0506 0.77000004 6.6377434e-39
-0.14886668 -0.0506 0.77000004 7.7426617e-39
-0.14740001 -0.0506 0.77000004 8.9393958e-39
-0.14593334 -0.0506 0.77000004 8.1125218e-39
-0.14446667 -0.0506 0.77000004 7.285652e-39
-0.14300001 -0.0506 0.77000004 8.5727923e-39
-0.14190096 -0.050731428 0.77200001 9.859934e-39
-0.14061238 -0.050797146 0.77300006 1.097883e-38
-0.13950001 -0.050928574 0.77500004 1.2169813e-38
-0.13802381 -0.050928574 0.77500004 1.2069719e-38
-0.13654761 -0.050928574 0.77500004 1.2067552e-38
-0.13541999 -0.051059999 0.77700001 1.2898723e-38
-0.13394001 -0.051059999 0.77700001 1.3729837e-38
-0.13246001 -0.051059999 0.77700001 8.3573931e-39
-0.18144001 -0.05002667 0.78400004 1.4745127e-38
-0.17902859 -0.049771432 0.78000003 1.4932367e-38
-0.17731525 -0.049707621 0.77900004 1.2266968e-38
-0.17583144 -0.049707621 0.77900004 9.5757534e-39
-0.17389999 -0.04958 0.77700001 8.1863786e-39
-0.17242 -0.04958 0.77700001 6.8246542e-39
-0.17094 -0.04958 0.77700001 6.7324852e-39
-0.16902381 -0.049452383 0.77500004 6.7389298e-39
-0.16754761 -0.049452383 0.77500004 8.9497864e-39
-0.16607144 -0.049452383 0.77500004 1.1245688e-38
-0.16417049 -0.049324766 0.77300006 1.207258e-38
-0.1626981 -0.049324766 0.77300006 1.2907363e-38
-0.16101715 -0.049260955 0.77200001 1.2728727e-38
-0.15954667 -0.049260955 0.77200001 1.25307e-38
-0.15807618 -0.049260955 0.77200001 1.2628269e-38
-0.15660572 -0.049260955 0.77200001 1.2716128e-38
-0.15513523 -0.049260955 0.77200001 9.9570874e-39
-0.15366477 -0.049260955 0.77200001 7.1926955e-39
-0.15219429 -0.049260955 0.77200001 7.3763679e-39
-0.15033334 -0.049133338 0.77000004 7.5596941e-39
-0.14886668 -0.049133338 0.77000004 7.4675139e-39
-0.14740001 -0.049133338 0.77000004 7.470032e-39
-0.14631239 -0.049260955 0.77200001 7.6562212e-39
-0.14484191 -0.049260955 0.77200001 7.8366692e-39
-0.14300001 -0.049133338 0.77000004 9.8556208e-39
-0.14190096 -0.049260955 0.77200001 1.1979336e-38
-0.14061238 -0.049324766 0.77300006 1.199263e-38
-0.13950001 -0.049452383 0.77500004 1.2075471e-38
-0.13802381 -0.049452383 0.77500004 1.1974282e-38
-0.13689999 -0.04958 0.77700001 1.1977844e-38
-0.13541999 -0.04958 0.77700001 1.3374721e-38
-0.13394001 -0.04958 0.77700001 1.4740725e-38
-0.18144001 -0.048533335 0.78400004 1.4744074e-38
-0.17754287 -0.048285715 0.78000003 1.2081505e-38
-0.17583144 -0.048223812 0.77900004 9.7737723e-39
-0.17434764 -0.048223812 0.77900004 8.8496706e-39
-0.17242 -0.048100002 0.77700001 7.9259557e-39
-0.17094 -0.048100002 0.77700001 6.2711441e-39
-0.16946 -0.048100002 0.77700001 4.6163045e-39
-0.16754761 -0.047976192 0.77500004 7.6608595e-39
-0.16607144 -0.047976192 0.77500004 1.0693589e-38
-0.16417049 -0.047852382 0.77300006 1.1152772e-38
-0.1626981 -0.047852382 0.77300006 1.1709184e-38
-0.16122574 -0.047852382 0.77300006 1.1339349e-38
-0.15954667 -0.047790475 0.77200001 1.0969486e-38
-0.15807618 -0.047790475 0.77200001 1.0601776e-38
-0.15660572 -0.047790475 0.77200001 1.0234411e-38
-0.15513523 -0.047790475 0.77200001 8.8511168e-39
-0.15366477 -0.047790475 0.77200001 7.3763763e-39
-0.15219429 -0.047790475 0.77200001 7.6515338e-39
-0.15072381 -0.047790475 0.77200001 7.8348503e-39
-0.14925334 -0.047790475 0.77200001 7.6511849e-39
-0.14778285 -0.047790475 0.77200001 7.4700348e-39
-0.14631239 -0.047790475 0.77200001 7.6533583e-39
-0.14484191 -0.047790475 0.77200001 7.7448379e-39
-0.14337143 -0.047790475 0.77200001 9.7706026e-39
-0.14208478 -0.047852382 0.77300006 1.1894688e-38
-0.14097619 -0.047976192 0.77500004 1.1432673e-38
-0.13950001 -0.047976192 0.77500004 1.0970939e-38
-0.13802381 -0.047976192 0.77500004 1.1610156e-38
-0.13725239 -0.048223812 0.77900004 1.234767e-38
-0.17754287 -0.046800002 0.78000003 1.1988236e-38
-0.17583144 -0.046740003 0.77900004 9.9660431e-39
-0.17434764 -0.046740003 0.77900004 9.5054139e-39
-0.17286381 -0.046740003 0.77900004 9.1273407e-39
-0.17094 -0.04662 0.77700001 5.7968999e-39
-0.16946 -0.04662 0.77700001 2.5004966e-39
-0.16754761 -0.046500001 0.77500004 6.2804488e-39
-0.16607144 -0.046500001 0.77500004 1.0141137e-38
-0.16459525 -0.046500001 0.77500004 1.0325178e-38
-0.1626981 -0.046380006 0.77300006 1.0511014e-38
-0.16122574 -0.046380006 0.77300006 9.9621657e-39
-0.15954667 -0.046320003 0.77200001 9.4979618e-39
-0.15807618 -0.046320003 0.77200001 8.6682095e-39
-0.15660572 -0.046320003 0.77200001 7.8366524e-39
-0.15513523 -0.046320003 0.77200001 7.7401379e-39
-0.15366477 -0.046320003 0.77200001 7.6500961e-39
-0.15219429 -0.046320003 0.77200001 7.9256026e-39
-0.15072381 -0.046320003 0.77200001 8.2018293e-39
-0.14925334 -0.046320003 0.77200001 7.8352076e-39
-0.14778285 -0.046320003 0.77200001 7.5597123e-39
-0.14631239 -0.046320003 0.77200001 7.6519178e-39
-0.14484191 -0.046320003 0.77200001 7.7473448e-39
-0.14355716 -0.046380006 0.77300006 9.7777744e-39
-0.14208478 -0.046380006 0.77300006 1.1796373e-38
-0.14134 -0.04662 0.77700001 1.0784759e-38
-0.14022 -0.046740003 0.77900004 9.8645905e-39
-0.13873619 -0.046740003 0.77900004 1.1240311e-38
-0.13725239 -0.046740003 0.77900004 1.2718964e-38
-0.17754287 -0.045314286 0.78000003 1.2075769e-38
-0.17583144 -0.04525619 0.77900004 1.0330148e-38
-0.17434764 -0.04525619 0.77900004 9.5947186e-39
-0.17286381 -0.04525619 0.77900004 8.7678811e-39
-0.17138 -0.04525619 0.77900004 6.8264619e-39
-0.16946 -0.045139998 0.77700001 4.8849867e-39
-0.16798 -0.045139998 0.77700001 6.9161142e-39
-0.16607144 -0.04502381 0.77500004 8.9458375e-39
-0.16459525 -0.04502381 0.77500004 9.036971e-39
-0.16311905 -0.04502381 0.77500004 9.1284548e-39
-0.16164286 -0.04502381 0.77500004 9.0366263e-39
-0.15954667 -0.044849522 0.77200001 8.9447922e-39
-0.15807618 -0.044849522 0.77200001 8.48167e-39
-0.15660572 -0.044849522 0.77200001 8.1075037e-39
-0.15513523 -0.044849522 0.77200001 7.7408708e-39
-0.15366477 -0.044849522 0.77200001 7.3745966e-39
-0.15219429 -0.044849522 0.77200001 7.4664237e-39
-0.15072381 -0.044849522 0.77200001 7.5568243e-39
-0.14925334 -0.044849522 0.77200001 6.8228578e-39
-0.14778285 -0.044849522 0.77200001 6.0889039e-39
-0.14631239 -0.044849522 0.77200001 7.654066e-39
-0.14502953 -0.044907622 0.77300006 9.3110552e-39
-0.14355716 -0.044907622 0.77300006 9.5876435e-39
-0.14245239 -0.04502381 0.77500004 9.9560518e-39
-0.14134 -0.045139998 0.77700001 9.3114013e-39
-0.13985999 -0.045139998 0.77700001 8.7589604e-39
-0.13873619 -0.04525619 0.77900004 1.1515469e-38
-0.13725239 -0.04525619 0.77900004 1.4284479e-38
-0.13594286 -0.045314286 0.78000003 1.5663043e-38
-0.13445716 -0.045314286 0.78000003 1.7133815e-38
-0.17754287 -0.043828573 0.78000003 1.2166907e-38
-0.17605714 -0.043828573 0.78000003 1.078897e-38
-0.17434764 -0.043772385 0.77900004 9.5947032e-39
-0.17286381 -0.043772385 0.77900004 8.4923339e-39
-0.17138 -0.043772385 0.77900004 7.8491435e-39
-0.1698962 -0.043772385 0.77900004 7.2823519e-39
-0.16798 -0.04366 0.77700001 7.5521257e-39
-0.1665 -0.04366 0.77700001 7.8337531e-39
-0.16501999 -0.04366 0.77700001 7.7483958e-39
-0.16311905 -0.043547619 0.77500004 7.7487643e-39
-0.16164286 -0.043547619 0.77500004 8.0181822e-39
-0.15975334 -0.043435238 0.77300006 8.3862472e-39
-0.15828095 -0.043435238 0.77300006 8.3869717e-39
-0.15680858 -0.043435238 0.77300006 8.3869605e-39
-0.1553362 -0.043435238 0.77300006 7.7444609e-39
-0.15366477 -0.043379046 0.77200001 7.0990915e-39
-0.15219429 -0.043379046 0.77200001 7.0072476e-39
-0.15072381 -0.043379046 0.77200001 6.9121849e-39
-0.14925334 -0.043379046 0.77200001 5.7150963e-39
-0.14778285 -0.043379046 0.77200001 4.6180982e-39
-0.14631239 -0.043379046 0.77200001 7.753425e-39
-0.14484191 -0.043379046 0.77200001 1.0874038e-38
-0.14355716 -0.043435238 0.77300006 9.4950709e-39
-0.14245239 -0.043547619 0.77500004 8.20686e-39
-0.14134 -0.04366 0.77700001 7.9288382e-39
-0.14022 -0.043772385 0.77900004 7.6555023e-39
-0.13873619 -0.043772385 0.77900004 1.1790629e-38
-0.13725239 -0.043772385 0.77900004 1.5944342e-38
-0.13594286 -0.043828573 0.78000003 1.7062462e-38
-0.13445716 -0.043828573 0.78000003 1.8146521e-38
-0.18190286 -0.042668574 0.78600001 1.3912502e-38
-0.17605714 -0.04234286 0.78000003 1.1706967e-38
-0.17457142 -0.04234286 0.78000003 1.0238254e-38
-0.17286381 -0.042288575 0.77900004 8.7724647e-39
-0.17138 -0.042288575 0.77900004 8.4026032e-39
-0.1698962 -0.042288575 0.77900004 8.0270384e-39
-0.16798 -0.042180002 0.77700001 8.1088588e-39
-0.1665 -0.042180002 0.77700001 8.2886118e-39
-0.16501999 -0.042180002 0.77700001 8.0235365e-39
-0.16353999 -0.042180002 0.77700001 7.7469651e-39
-0.16164286 -0.042071432 0.77500004 8.1096561e-39
-0.15975334 -0.041962862 0.77300006 8.387685e-39
-0.15828095 -0.041962862 0.77300006 8.7550382e-39
-0.15680858 -0.041962862 0.77300006 9.214203e-39
-0.1553362 -0.041962862 0.77300006 7.5597165e-39
-0.15366477 -0.041908573 0.77200001 5.9970684e-39
-0.15219429 -0.041908573 0.77200001 6.4537263e-39
-0.15072381 -0.041908573 0.77200001 7.0022296e-39
-0.14925334 -0.041908573 0.77200001 7.2788151e-39
-0.14778285 -0.041908573 0.77200001 7.6472318e-39
-0.14631239 -0.041908573 0.77200001 8.6710541e-39
-0.14484191 -0.041908573 0.77200001 9.6826739e-39
-0.14355716 -0.041962862 0.77300006 8.8500518e-39
-0.14208478 -0.041962862 0.77300006 8.017794e-39
-0.14097619 -0.042071432 0.77500004 7.5586193e-39
-0.13985999 -0.042180002 0.77700001 7.1916641e-39
-0.13873619 -0.042288575 0.77900004 1.2162648e-38
-0.13725239 -0.042288575 0.77900004 1.7053551e-38
-0.13576858 -0.042288575 0.77900004 1.7518774e-38
-0.18190286 -0.041171428 0.78600001 1.3818141e-38
-0.18040572 -0.041171428 0.78600001 1.336077e-38
-0.17605714 -0.040857144 0.78000003 1.2720019e-38
-0.17457142 -0.040857144 0.78000003 1.0881806e-38
-0.17286381 -0.040804762 0.77900004 9.1394437e-39
-0.17138 -0.040804762 0.77900004 8.9564902e-39
-0.1698962 -0.040804762 0.77900004 8.8596423e-39
-0.16798 -0.0407 0.77700001 8.7577707e-39
-0.1665 -0.0407 0.77700001 8.7578015e-39
-0.16501999 -0.0407 0.77700001 8.2986549e-39
-0.16353999 -0.0407 0.77700001 7.8391439e-39
-0.16164286 -0.040595241 0.77500004 8.109296e-39
-0.16016667 -0.040595241 0.77500004 8.4784457e-39
-0.15869048 -0.040595241 0.77500004 9.2274929e-39
-0.15680858 -0.040490478 0.77300006 1.0043228e-38
-0.1553362 -0.040490478 0.77300006 7.4621259e-39
-0.15386382 -0.040490478 0.77300006 4.8900019e-39
-0.15219429 -0.040438093 0.77200001 5.991658e-39
-0.15072381 -0.040438093 0.77200001 7.0940525e-39
-0.14925334 -0.040438093 0.77200001 8.9436866e-39
-0.14778285 -0.040438093 0.77200001 1.0781474e-38
-0.14631239 -0.040438093 0.77200001 9.6808845e-39
-0.14484191 -0.040438093 0.77200001 8.5723845e-39
-0.14355716 -0.040490478 0.77300006 8.1896016e-39
-0.14208478 -0.040490478 0.77300006 7.8265714e-39
-0.14097619 -0.040595241 0.77500004 7.2802304e-39
-0.13985999 -0.0407 0.77700001 6.8257444e-39
-0.13837999 -0.0407 0.77700001 1.2534997e-38
-0.13689999 -0.0407 0.77700001 1.8249917e-38
-0.13367715 -0.041538097 0.79300004 9.5822036e-39
-0.13216667 -0.041538097 0.79300004 1.0885543e-38
-0.1306562 -0.041538097 0.79300004 1.2260531e-38
-0.12914573 -0.041538097 0.79300004 1.1338913e-38
-0.18236572 -0.039775241 0.78800005 1.4189774e-38
-0.18040572 -0.039674286 0.78600001 1.3635908e-38
-0.17650859 -0.039472383 0.78200006 1.3276403e-38
-0.17501907 -0.039472383 0.78200006 1.143747e-38
-0.17308572 -0.039371427 0.78000003 9.5067815e-39
-0.1716 -0.039371427 0.78000003 9.599703e-39
-0.1698962 -0.039320953 0.77900004 9.6922448e-39
-0.16841239 -0.039320953 0.77900004 9.5982471e-39
-0.1665 -0.039219998 0.77700001 9.5961283e-39
-0.16544478 -0.039320953 0.77900004 9.6822577e-39
-0.16396096 -0.039320953 0.77900004 9.7683927e-39
-0.16206001 -0.039219998 0.77700001 8.846131e-39
-0.16058001 -0.039219998 0.77700001 7.8348811e-39
-0.15910001 -0.039219998 0.77700001 8.3891395e-39
-0.1572143 -0.039119046 0.77500004 8.9437076e-39
-0.1557381 -0.039119046 0.77500004 7.4631881e-39
-0.15386382 -0.039018098 0.77300006 5.9909349e-39
-0.15239145 -0.039018098 0.77300006 6.8177977e-39
-0.15072381 -0.038967621 0.77200001 7.7368883e-39
-0.14925334 -0.038967621 0.77200001 9.3142529e-39
-0.14778285 -0.038967621 0.77200001 1.087797e-38
-0.14631239 -0.038967621 0.77200001 9.0322963e-39
-0.14484191 -0.038967621 0.77200001 7.18659e-39
-0.14337143 -0.038967621 0.77200001 7.6428696e-39
-0.14208478 -0.039018098 0.77300006 8.09955e-39
-0.14061238 -0.039018098 0.77300006 7.5575193e-39
-0.13950001 -0.039119046 0.77500004 7.0108363e-39
-0.13802381 -0.039119046 0.77500004 1.2722959e-38
-0.13654761 -0.039119046 0.77500004 1.8436092e-38
-0.13518763 -0.040027622 0.79300004 1.3804439e-38
-0.13367715 -0.040027622 0.79300004 9.9524449e-39
-0.13216667 -0.040027622 0.79300004 1.0887376e-38
-0.1306562 -0.040027622 0.79300004 1.1896786e-38
-0.12914573 -0.040027622 0.79300004 1.0697482e-38
-0.18236572 -0.038274288 0.78800005 1.4559991e-38
-0.18086477 -0.038274288 0.78800005 1.4010431e-38
-0.17890857 -0.038177144 0.78600001 1.3920409e-38
-0.17696001 -0.038079999 0.78400004 1.391962e-38
-0.17501907 -0.037982859 0.78200006 1.1898452e-38
-0.17352954 -0.037982859 0.78200006 9.969196e-39
-0.17204002 -0.037982859 0.78200006 1.0243992e-38
-0.17011429 -0.037885718 0.78000003 1.0519501e-38
-0.16841239 -0.037837148 0.77900004 1.0428029e-38
-0.16692857 -0.037837148 0.77900004 1.0425917e-38
-0.16544478 -0.037837148 0.77900004 1.1067012e-38
-0.16396096 -0.037837148 0.77900004 1.1795252e-38
-0.16206001 -0.03774 0.77700001 9.4911262e-39
-0.16058001 -0.03774 0.77700001 7.2838611e-39
-0.15910001 -0.03774 0.77700001 7.5568719e-39
-0.15762 -0.03774 0.77700001 7.8319972e-39
-0.15614 -0.03774 0.77700001 7.4642741e-39
-0.1542619 -0.037642859 0.77500004 7.0951329e-39
-0.15091905 -0.037545718 0.77300006 8.3854947e-39
-0.14944667 -0.037545718 0.77300006 9.6848319e-39
-0.14778285 -0.037497144 0.77200001 1.1060931e-38
-0.14631239 -0.037497144 0.77200001 8.3837137e-39
-0.14540476 -0.037642859 0.77500004 5.8123072e-39
-0.14392857 -0.037642859 0.77500004 7.0979915e-39
-0.14245239 -0.037642859 0.77500004 8.3847661e-39
-0.14134 -0.03774 0.77700001 7.8351908e-39
-0.13985999 -0.03774 0.77700001 7.2863372e-39
-0.13837999 -0.03774 0.77700001 1.2911268e-38
-0.13689999 -0.03774 0.77700001 1.8619742e-38
-0.13367715 -0.038517144 0.79300004 1.0323369e-38
-0.12697144 -0.039245714 0.80800003 2.341548e-38
-0.12543239 -0.039245714 0.80800003 2.3416227e-38
-0.1841 -0.036820002 0.78900003 1.5486275e-38
-0.18236572 -0.036773335 0.78800005 1.520751e-38
-0.18086477 -0.036773335 0.78800005 1.4929154e-38
-0.17890857 -0.036679998 0.78600001 1.4471072e-38
-0.17696001 -0.036586668 0.78400004 1.4013261e-38
-0.17546667 -0.036586668 0.78400004 1.2266524e-38
-0.17352954 -0.036493339 0.78200006 1.0612054e-38
-0.17204002 -0.036493339 0.78200006 1.1072312e-38
-0.17011429 -0.036400001 0.78000003 1.1624418e-38
-0.16862859 -0.036400001 0.78000003 1.1255658e-38
-0.16692857 -0.036353335 0.77900004 1.0886211e-38
-0.16544478 -0.036353335 0.77900004 1.1620227e-38
-0.16396096 -0.036353335 0.77900004 1.2354537e-38
-0.16247715 -0.036353335 0.77900004 1.0133252e-38
-0.16099335 -0.036353335 0.77900004 7.8348671e-39
-0.15950954 -0.036353335 0.77900004 8.1093128e-39
-0.15802571 -0.036353335 0.77900004 8.2922523e-39
-0.15614 -0.036260001 0.77700001 8.0160144e-39
-0.15466 -0.036260001 0.77700001 7.7401533e-39
-0.15318 -0.036260001 0.77700001 8.1114456e-39
-0.15130952 -0.036166668 0.77500004 8.4830896e-39
-0.14983334 -0.036166668 0.77500004 9.2206406e-39
-0.14835715 -0.036166668 0.77500004 1.0050389e-38
-0.14688095 -0.036166668 0.77500004 8.567749e-39
-0.14540476 -0.036166668 0.77500004 7.1887844e-39
-0.14392857 -0.036166668 0.77500004 7.9252649e-39
-0.14282 -0.036260001 0.77700001 8.6620914e-39
-0.14134 -0.036260001 0.77700001 8.9383056e-39
-0.13837999 -0.036260001 0.77700001 1.4111204e-38
-0.13725239 -0.036353335 0.77900004 1.90789e-38
-0.13484667 -0.036913332 0.79100001 1.325597e-38
-0.13334 -0.036913332 0.79100001 1.0786128e-38
-0.13216667 -0.037006669 0.79300004 1.0695401e-38
-0.12851048 -0.037706669 0.80800003 1.6603827e-38
-0.12697144 -0.037706669 0.80800003 2.249532e-38
-0.12543239 -0.037706669 0.80800003 2.2587547e-38
-0.1841 -0.035317142 0.78900003 1.5856865e-38
-0.18236572 -0.035272382 0.78800005 1.5852899e-38
-0.18086477 -0.035272382 0.78800005 1.5852904e-38
-0.17890857 -0.03518286 0.78600001 1.4934554e-38
-0.17741142 -0.03518286 0.78600001 1.4104408e-38
-0.17546667 -0.035093337 0.78400004 1.2628901e-38
-0.17397334 -0.035093337 0.78400004 1.1257104e-38
-0.17248 -0.035093337 0.78400004 1.1997881e-38
-0.1705505 -0.035003811 0.78200006 1.282081e-38
-0.16862859 -0.034914285 0.78000003 1.2083612e-38
-0.16714285 -0.034914285 0.78000003 1.1442598e-38
-0.16544478 -0.034869526 0.77900004 1.2179477e-38
-0.16396096 -0.034869526 0.77900004 1.3000248e-38
-0.16247715 -0.034869526 0.77900004 1.0683547e-38
-0.16099335 -0.034869526 0.77900004 8.4791463e-39
-0.15950954 -0.034869526 0.77900004 8.6667746e-39
-0.15802571 -0.034869526 0.77900004 8.8493567e-39
-0.1565419 -0.034869526 0.77900004 8.6645983e-39
-0.15466 -0.034779999 0.77700001 8.4830783e-39
-0.15318 -0.034779999 0.77700001 8.4852293e-39
-0.15130952 -0.034690477 0.77500004 8.573839e-39
-0.14983334 -0.034690477 0.77500004 8.7567954e-39
-0.14688095 -0.034690477 0.77500004 8.843966e-39
-0.14540476 -0.034690477 0.77500004 8.6606677e-39
-0.14392857 -0.034690477 0.77500004 8.7593331e-39
-0.14282 -0.034779999 0.77700001 8.9419195e-39
-0.14134 -0.034779999 0.77700001 1.0043221e-38
-0.14022 -0.034869526 0.77900004 1.1149875e-38
-0.13873619 -0.034869526 0.77900004 1.5403332e-38
-0.13742857 -0.034914285 0.78000003 1.9628094e-38
-0.13635334 -0.035406668 0.79100001 1.40014e-38
-0.13484667 -0.035406668 0.79100001 1.2616385e-38
-0.13334 -0.035406668 0.79100001 1.1247829e-38
-0.13216667 -0.035496194 0.79300004 1.0422753e-38
-0.1306562 -0.035496194 0.79300004 9.6837585e-39
-0.13004953 -0.036167622 0.80800003 1.2813765e-38
-0.12882857 -0.036257144 0.81000006 1.7244181e-38
-0.12728572 -0.036257144 0.81000006 2.1670246e-38
-0.12574287 -0.036257144 0.81000006 2.1848201e-38
-0.18259715 -0.033814285 0.78900003 1.539411e-38
-0.18109429 -0.033814285 0.78900003 1.5301189e-38
-0.17936382 -0.033771429 0.78800005 1.484272e-38
-0.17786287 -0.033771429 0.78800005 1.4471421e-38
-0.17591429 -0.033685714 0.78600001 1.1249634e-38
-0.17397334 -0.033600003 0.78400004 8.1200384e-39
-0.17248 -0.033600003 0.78400004 9.3235716e-39
-0.17098668 -0.033600003 0.78400004 1.0527454e-38
-0.16906096 -0.033514287 0.78200006 1.0889034e-38
-0.16757144 -0.033514287 0.78200006 1.1166367e-38
-0.16544478 -0.033385713 0.77900004 1.2452099e-38
-0.16396096 -0.033385713 0.77900004 1.3646318e-38
-0.16247715 -0.033385713 0.77900004 1.0777535e-38
-0.16099335 -0.033385713 0.77900004 8.0217583e-39
-0.15950954 -0.033385713 0.77900004 8.2972718e-39
-0.15802571 -0.033385713 0.77900004 8.6649627e-39
-0.1565419 -0.033385713 0.77900004 8.2972536e-39
-0.1550581 -0.033385713 0.77900004 8.0228163e-39
-0.15318 -0.033300001 0.77700001 7.8384208e-39
-0.1517 -0.033300001 0.77700001 7.7462336e-39
-0.14983334 -0.033214286 0.77500004 8.2954613e-39
-0.14835715 -0.033214286 0.77500004 8.9368734e-39
-0.14688095 -0.033214286 0.77500004 9.029425e-39
-0.14540476 -0.033214286 0.77500004 9.214196e-39
-0.14392857 -0.033214286 0.77500004 9.3128726e-39
-0.14282 -0.033300001 0.77700001 9.4036263e-39
-0.14134 -0.033300001 0.77700001 1.1055942e-38
-0.14022 -0.033385713 0.77900004 1.2717892e-38
-0.13873619 -0.033385713 0.77900004 1.5771365e-38
-0.13725239 -0.033385713 0.77900004 1.8800116e-38
-0.13635334 -0.0339 0.79100001 1.1879505e-38
-0.13484667 -0.0339 0.79100001 1.1887118e-38
-0.13334 -0.0339 0.79100001 1.1893201e-38
-0.13183333 -0.0339 0.79100001 1.0420949e-38
-0.13032667 -0.0339 0.79100001 9.0384045e-39
-0.13037144 -0.034714289 0.81000006 1.346596e-38
-0.12882857 -0.034714289 0.81000006 1.7980677e-38
-0.12728572 -0.034714289 0.81000006 2.249821e-38
-0.18456666 -0.032393333 0.79100001 1.5212603e-38
-0.18305999 -0.032393333 0.79100001 1.5027139e-38
-0.18109429 -0.032311428 0.78900003 1.4842024e-38
-0.17959145 -0.032311428 0.78900003 1.4842731e-38
-0.17786287 -0.03227048 0.78800005 1.4838403e-38
-0.17591429 -0.032188572 0.78600001 9.8563032e-39
-0.17441714 -0.032188572 0.78600001 4.9922477e-39
-0.17248 -0.032106668 0.78400004 6.6485124e-39
-0.17098668 -0.032106668 0.78400004 8.3090833e-39
-0.16906096 -0.032024764 0.78200006 9.6026696e-39
-0.16757144 -0.032024764 0.78200006 1.0986314e-38
-0.16565715 -0.031942859 0.78000003 1.2645467e-38
-0.16417143 -0.031942859 0.78000003 1.4378865e-38
-0.16268572 -0.031942859 0.78000003 1.0963737e-38
-0.1612 -0.031942859 0.78000003 7.5636668e-39
-0.15950954 -0.031901907 0.77900004 8.0217653e-39
-0.15802571 -0.031901907 0.77900004 8.480563e-39
-0.1565419 -0.031901907 0.77900004 8.0210058e-39
-0.1550581 -0.031901907 0.77900004 7.5611122e-39
-0.15357429 -0.031901907 0.77900004 7.2787898e-39
-0.1517 -0.031819999 0.77700001 7.0054442e-39
-0.14983334 -0.031738095 0.77500004 7.9259599e-39
-0.14688095 -0.031738095 0.77500004 9.3124733e-39
-0.14540476 -0.031738095 0.77500004 9.8649394e-39
-0.1443 -0.031819999 0.77700001 9.8663925e-39
-0.14282 -0.031819999 0.77700001 9.8653051e-39
-0.14170381 -0.031901907 0.77900004 1.206863e-38
-0.14040001 -0.031942859 0.78000003 1.4377401e-38
-0.13891429 -0.031942859 0.78000003 1.6231299e-38
-0.13742857 -0.031942859 0.78000003 1.8062265e-38
-0.13751143 -0.032311428 0.78900003 1.3914957e-38
-0.13635334 -0.032393333 0.79100001 9.873151e-39
-0.13484667 -0.032393333 0.79100001 1.1157805e-38
-0.13334 -0.032393333 0.79100001 1.2537838e-38
-0.13183333 -0.032393333 0.79100001 1.051099e-38
-0.13032667 -0.032393333 0.79100001 8.492418e-39
-0.13224 -0.033253334 0.81200004 1.1249293e-38
-0.13069335 -0.033253334 0.81200004 1.4109891e-38
-0.12914667 -0.033253334 0.81200004 1.8717159e-38
-0.12728572 -0.03317143 0.81000006 2.3416928e-38
-0.12574287 -0.03317143 0.81000006 2.3325465e-38
-0.18456666 -0.030886667 0.79100001 1.4749123e-38
-0.18305999 -0.030886667 0.79100001 1.4933165e-38
-0.18109429 -0.030808574 0.78900003 1.5209378e-38
-0.17959145 -0.030808574 0.78900003 1.5210086e-38
-0.17786287 -0.030769525 0.78800005 1.5205743e-38
-0.17591429 -0.03069143 0.78600001 9.9502771e-39
-0.17441714 -0.03069143 0.78600001 4.7002367e-39
-0.17248 -0.030613335 0.78400004 5.9920419e-39
-0.17098668 -0.030613335 0.78400004 7.375691e-39
-0.16949333 -0.030613335 0.78400004 6.9222729e-39
-0.16757144 -0.030535242 0.78200006 6.5610237e-39
-0.16565715 -0.030457145 0.78000003 9.0455988e-39
-0.16417143 -0.030457145 0.78000003 1.1530188e-38
-0.16268572 -0.030457145 0.78000003 1.0878379e-38
-0.1612 -0.030457145 0.78000003 1.0320178e-38
-0.15950954 -0.030418096 0.77900004 1.0508498e-38
-0.15802571 -0.030418096 0.77900004 1.0788995e-38
-0.15674286 -0.030457145 0.78000003 8.4851831e-39
-0.15525715 -0.030457145 0.78000003 6.0895765e-39
-0.15357429 -0.030418096 0.77900004 5.1687188e-39
-0.1517 -0.030339999 0.77700001 4.2478611e-39
-0.14983334 -0.030261906 0.77500004 6.7324502e-39
-0.14835715 -0.030261906 0.77500004 9.214175e-39
-0.14688095 -0.030261906 0.77500004 9.7730941e-39
-0.14578 -0.030339999 0.77700001 1.0324837e-38
-0.1443 -0.030339999 0.77700001 1.0235525e-38
-0.14282 -0.030339999 0.77700001 1.0146184e-38
-0.14170381 -0.030418096 0.77900004 1.2809398e-38
-0.14040001 -0.030457145 0.78000003 1.5486255e-38
-0.13751143 -0.030808574 0.78900003 1.3723837e-38
-0.13635334 -0.030886667 0.79100001 1.0414157e-38
-0.13484667 -0.030886667 0.79100001 1.1251425e-38
-0.13334 -0.030886667 0.79100001 1.2172284e-38
-0.13216667 -0.030964762 0.79300004 1.0415207e-38
-0.13224 -0.031706665 0.81200004 1.1527322e-38
-0.13069335 -0.031706665 0.81200004 1.4294647e-38
-0.12914667 -0.031706665 0.81200004 1.880613e-38
-0.12760001 -0.031706665 0.81200004 2.3325812e-38
-0.12574287 -0.031628575 0.81000006 2.3325468e-38
-0.18456666 -0.029380001 0.79100001 1.428743e-38
-0.18305999 -0.029380001 0.79100001 1.4939983e-38
-0.18155333 -0.029380001 0.79100001 1.5575647e-38
-0.17959145 -0.029305715 0.78900003 1.5577431e-38
-0.17786287 -0.029268574 0.78800005 1.5668872e-38
-0.1763619 -0.029268574 0.78800005 1.0044273e-38
-0.17441714 -0.029194286 0.78600001 4.5194272e-39
-0.17292 -0.029194286 0.78600001 5.4399261e-39
-0.17098668 -0.029120002 0.78400004 6.4472733e-39
-0.16949333 -0.029120002 0.78400004 4.2403768e-39
-0.16800001 -0.029120002 0.78400004 2.1331546e-39
-0.16608192 -0.029045716 0.78200006 5.4442267e-39
-0.1645924 -0.029045716 0.78200006 8.7643204e-39
-0.16268572 -0.02897143 0.78000003 1.0885172e-38
-0.16161335 -0.029045716 0.78200006 1.3090298e-38
-0.1597143 -0.02897143 0.78000003 1.3091732e-38
-0.15822858 -0.02897143 0.78000003 1.3180661e-38
-0.15674286 -0.02897143 0.78000003 8.9497332e-39
-0.15525715 -0.02897143 0.78000003 4.7134524e-39
-0.15377143 -0.02897143 0.78000003 3.0324211e-39
-0.15209047 -0.028934287 0.77900004 1.4891697e-39
-0.15022001 -0.028859999 0.77700001 5.539274e-39
-0.14873999 -0.028859999 0.77700001 9.6765657e-39
-0.14726 -0.028859999 0.77700001 1.0234067e-38
-0.14578 -0.028859999 0.77700001 1.0786529e-38
-0.1443 -0.028859999 0.77700001 1.0604665e-38
-0.14318763 -0.028934287 0.77900004 1.0516035e-38
-0.14170381 -0.028934287 0.77900004 1.3550528e-38
-0.13962667 -0.029120002 0.78400004 1.6412519e-38
-0.13733715 -0.029268574 0.78800005 1.3624473e-38
-0.13635334 -0.029380001 0.79100001 1.1062036e-38
-0.13484667 -0.029380001 0.79100001 1.1437261e-38
-0.13334 -0.029380001 0.79100001 1.1804237e-38
-0.13183333 -0.029380001 0.79100001 1.0411632e-38
-0.13032667 -0.029380001 0.79100001 9.126308e-39
-0.13069335 -0.030160001 0.81200004 1.4568713e-38
-0.12914667 -0.030160001 0.81200004 1.8895445e-38
-0.12728572 -0.030085716 0.81000006 2.332545e-38
-0.12574287 -0.030085716 0.81000006 2.3325826e-38
-0.18456666 -0.027873334 0.79100001 1.2815547e-38
-0.18305999 -0.027873334 0.79100001 1.3919391e-38
-0.18109429 -0.027802859 0.78900003 1.5115396e-38
-0.17959145 -0.027802859 0.78900003 1.5393405e-38
-0.17786287 -0.027767621 0.78800005 1.5764661e-38
-0.1763619 -0.027767621 0.78800005 9.5833106e-39
-0.17441714 -0.027697144 0.78600001 3.4206214e-39
-0.17248 -0.027626667 0.78400004 5.0729176e-39
-0.17142285 -0.027697144 0.78600001 6.8171068e-39
-0.16949333 -0.027626667 0.78400004 6.6295234e-39
-0.16800001 -0.027626667 0.78400004 6.4422147e-39
-0.16650668 -0.027626667 0.78400004 8.0155645e-39
-0.16501334 -0.027626667 0.78400004 9.5803973e-39
-0.16310287 -0.027556192 0.78200006 1.0787215e-38
-0.16202667 -0.027626667 0.78400004 1.1986469e-38
-0.16012383 -0.027556192 0.78200006 1.1804961e-38
-0.15863429 -0.027556192 0.78200006 1.1623401e-38
-0.15714477 -0.027556192 0.78200006 9.3124046e-39
-0.15565525 -0.027556192 0.78200006 7.1029423e-39
-0.15416571 -0.027556192 0.78200006 6.1770245e-39
-0.15267619 -0.027556192 0.78200006 5.2511586e-39
-0.14912286 -0.027450478 0.77900004 8.7614239e-39
-0.14763905 -0.027450478 0.77900004 1.0237297e-38
-0.14615525 -0.027450478 0.77900004 1.1708474e-38
-0.14467144 -0.027450478 0.77900004 1.1434778e-38
-0.14337143 -0.027485715 0.78000003 1.1253227e-38
-0.14188573 -0.027485715 0.78000003 1.3833558e-38
-0.14112 -0.027626667 0.78400004 1.6505425e-38
-0.13962667 -0.027626667 0.78400004 1.6043406e-38
-0.13848571 -0.027697144 0.78600001 1.5576698e-38
-0.13698857 -0.027697144 0.78600001 1.334718e-38
-0.1358362 -0.027767621 0.78800005 1.1251098e-38
-0.13450572 -0.027802859 0.78900003 1.143548e-38
-0.13300286 -0.027802859 0.78900003 1.1619863e-38
-0.12914667 -0.028613335 0.81200004 1.8618495e-38
-0.12760001 -0.028613335 0.81200004 2.3141416e-38
-0.12605333 -0.028613335 0.81200004 2.3233992e-38
-0.18456666 -0.026366666 0.79100001 1.1343665e-38
-0.18305999 -0.026366666 0.79100001 1.3004983e-38
-0.18155333 -0.026366666 0.79100001 1.4749849e-38
-0.17959145 -0.026300002 0.78900003 1.5301212e-38
-0.17808858 -0.026300002 0.78900003 1.5855062e-38
-0.1763619 -0.026266668 0.78800005 9.0308613e-39
-0.17486095 -0.026266668 0.78800005 2.3160675e-39
-0.17292 -0.0262 0.78600001 4.6933465e-39
-0.17142285 -0.0262 0.78600001 7.187271e-39
-0.1699257 -0.0262 0.78600001 8.9404145e-39
-0.16800001 -0.026133334 0.78400004 1.0773869e-38
-0.16650668 -0.026133334 0.78400004 1.05873e-38
-0.16501334 -0.026133334 0.78400004 1.040867e-38
-0.16352001 -0.026133334 0.78400004 1.0689574e-38
-0.16202667 -0.026133334 0.78400004 1.096476e-38
-0.16012383 -0.026066668 0.78200006 1.050562e-38
-0.15863429 -0.026066668 0.78200006 1.0136088e-38
-0.15754667 -0.026133334 0.78400004 9.7669144e-39
-0.15605333 -0.026133334 0.78400004 9.4938938e-39
-0.15416571 -0.026066668 0.78200006 9.3127087e-39
-0.15306666 -0.026133334 0.78400004 9.1243966e-39
-0.15118667 -0.026066668 0.78200006 8.476907e-39
-0.14969715 -0.026066668 0.78200006 7.8430745e-39
-0.14858668 -0.026133334 0.78400004 1.0240888e-38
-0.14337143 -0.026000001 0.78000003 1.2092277e-38
-0.14188573 -0.026000001 0.78000003 1.4208431e-38
-0.14112 -0.026133334 0.78400004 1.6320322e-38
-0.13998286 -0.0262 0.78600001 1.5582445e-38
-0.13848571 -0.0262 0.78600001 1.4929906e-38
-0.13698857 -0.0262 0.78600001 1.3161711e-38
-0.13484667 -0.026366666 0.79100001 1.1443725e-38
-0.13334 -0.026366666 0.79100001 1.1434743e-38
-0.13069335 -0.027066668 0.81200004 1.3830068e-38
-0.12914667 -0.027066668 0.81200004 1.8341545e-38
-0.12760001 -0.027066668 0.81200004 2.2955585e-38
-0.12574287 -0.027000003 0.81000006 2.314215e-38
-0.12450667 -0.027066668 0.81200004 2.3415142e-38
-0.18004666 -0.02486 0.79100001 1.6128809e-38
-0.17853999 -0.02486 0.79100001 1.6313163e-38
-0.17658572 -0.024797143 0.78900003 1.0045357e-38
-0.17486095 -0.024765715 0.78800005 3.8575238e-39
-0.17292 -0.024702856 0.78600001 5.2396638e-39
-0.17142285 -0.024702856 0.78600001 6.6394404e-39
-0.1699257 -0.024702856 0.78600001 1.0511242e-38
-0.16842857 -0.024702856 0.78600001 1.4474155e-38
-0.16650668 -0.024640001 0.78400004 1.438088e-38
-0.16501334 -0.024640001 0.78400004 1.4287961e-38
-0.16352001 -0.024640001 0.78400004 1.4193967e-38
-0.16202667 -0.024640001 0.78400004 1.4192236e-38
-0.16053334 -0.024640001 0.78400004 1.3822089e-38
-0.15904 -0.024640001 0.78400004 1.3451843e-38
-0.15754667 -0.024640001 0.78400004 1.3362486e-38
-0.15605333 -0.024640001 0.78400004 1.3365334e-38
-0.15456001 -0.024640001 0.78400004 1.1155521e-38
-0.15306666 -0.024640001 0.78400004 9.0365114e-39
-0.15157335 -0.024640001 0.78400004 7.8430325e-39
-0.15008001 -0.024640001 0.78400004 6.649576e-39
-0.14858668 -0.024640001 0.78400004 9.874628e-39
-0.14709334 -0.024640001 0.78400004 1.3103901e-38
-0.14560001 -0.024640001 0.78400004 1.2734011e-38
-0.14373906 -0.024577145 0.78200006 1.2456008e-38
-0.14224954 -0.024577145 0.78200006 1.4759442e-38
-0.14112 -0.024640001 0.78400004 1.7053934e-38
-0.13998286 -0.024702856 0.78600001 1.595159e-38
-0.13883811 -0.024765715 0.78800005 1.4926322e-38
-0.13733715 -0.024765715 0.78800005 1.3162783e-38
-0.13600858 -0.024797143 0.78900003 1.1441218e-38
-0.13484667 -0.02486 0.79100001 1.1443721e-38
-0.13334 -0.02486 0.79100001 1.1433295e-38
-0.13312763 -0.025394287 0.80800003 1.0333419e-38
-0.13158856 -0.025394287 0.80800003 1.1994009e-38
-0.12914667 -0.025520001 0.81200004 1.8064595e-38
-0.12728572 -0.025457144 0.81000006 2.2402772e-38
-0.12574287 -0.025457144 0.81000006 2.2770856e-38
-0.1242 -0.025457144 0.81000006 2.3231107e-38
-0.18866096 -0.023678096 0.80200005 7.8122614e-39
-0.18666667 -0.023619048 0.80000001 1.1251104e-38
-0.17899144 -0.023412382 0.79300004 1.6866325e-38
-0.17703332 -0.023353333 0.79100001 1.115168e-38
-0.17552668 -0.023353333 0.79100001 5.4212314e-39
-0.17336002 -0.023264764 0.78800005 5.7860048e-39
-0.17185906 -0.023264764 0.78800005 6.1766728e-39
-0.17035811 -0.023264764 0.78800005 1.217433e-38
-0.16842857 -0.023205714 0.78600001 1.8148298e-38
-0.16693142 -0.023205714 0.78600001 1.8152958e-38
-0.16501334 -0.023146667 0.78400004 1.8152235e-38
-0.16352001 -0.023146667 0.78400004 1.7784172e-38
-0.16202667 -0.023146667 0.78400004 1.7508693e-38
-0.16053334 -0.023146667 0.78400004 1.7141379e-38
-0.15904 -0.023146667 0.78400004 1.6772234e-38
-0.15754667 -0.023146667 0.78400004 1.695446e-38
-0.15605333 -0.023146667 0.78400004 1.7226018e-38
-0.15456001 -0.023146667 0.78400004 1.3090189e-38
-0.15306666 -0.023146667 0.78400004 8.9328461e-39
-0.15157335 -0.023146667 0.78400004 7.1811628e-39
-0.15008001 -0.023146667 0.78400004 5.4449386e-39
-0.14858668 -0.023146667 0.78400004 9.5087013e-39
-0.14709334 -0.023146667 0.78400004 1.3648458e-38
-0.14560001 -0.023146667 0.78400004 1.3196798e-38
-0.14410667 -0.023146667 0.78400004 1.2830193e-38
-0.14261334 -0.023146667 0.78400004 1.531049e-38
-0.14112 -0.023146667 0.78400004 1.7790078e-38
-0.13998286 -0.023205714 0.78600001 1.6412935e-38
-0.13883811 -0.023264764 0.78800005 1.5019232e-38
-0.13733715 -0.023264764 0.78800005 1.316384e-38
-0.13600858 -0.023294287 0.78900003 1.1436193e-38
-0.13367715 -0.023412382 0.79300004 1.1432946e-38
-0.13312763 -0.023855237 0.80800003 1.0791163e-38
-0.13158856 -0.023855237 0.80800003 1.2178398e-38
-0.13037144 -0.023914289 0.81000006 1.3550608e-38
-0.12882857 -0.023914289 0.81000006 1.7696179e-38
-0.12728572 -0.023914289 0.81000006 2.1945032e-38
-0.12574287 -0.023914289 0.81000006 2.2492125e-38
-0.12450667 -0.023973335 0.81200004 2.304313e-38
-0.18971428 -0.022095239 0.80000001 5.707909e-39
-0.18866096 -0.022150477 0.80200005 8.3654211e-39
-0.18713334 -0.022150477 0.80200005 1.1161058e-38
-0.18514286 -0.022095239 0.80000001 1.420709e-38
-0.17703332 -0.021846667 0.79100001 1.1889227e-38
-0.17552668 -0.021846667 0.79100001 6.7097898e-39
-0.17358001 -0.021791428 0.78900003 6.0625791e-39
-0.17207715 -0.021791428 0.78900003 5.4384001e-39
-0.17057429 -0.021791428 0.78900003 1.0603805e-38
-0.16885714 -0.021763811 0.78800005 1.5853133e-38
-0.16693142 -0.021708572 0.78600001 1.6958386e-38
-0.16543429 -0.021708572 0.78600001 1.8060051e-38
-0.16393714 -0.021708572 0.78600001 1.7692706e-38
-0.16244 -0.021708572 0.78600001 1.7415399e-38
-0.16094287 -0.021708572 0.78600001 1.7139885e-38
-0.15904 -0.021653336 0.78400004 1.6864392e-38
-0.15754667 -0.021653336 0.78400004 1.603645e-38
-0.15605333 -0.021653336 0.78400004 1.5209228e-38
-0.15495428 -0.021708572 0.78600001 1.0784281e-38
-0.15345715 -0.021708572 0.78600001 6.2577856e-39
-0.15196 -0.021708572 0.78600001 6.0798459e-39
-0.15046287 -0.021708572 0.78600001 5.801506e-39
-0.14896572 -0.021708572 0.78600001 7.8405774e-39
-0.14746857 -0.021708572 0.78600001 9.7827589e-39
-0.14597143 -0.021708572 0.78600001 1.0890889e-38
-0.14410667 -0.021653336 0.78400004 1.1907204e-38
-0.14261334 -0.021653336 0.78400004 1.4663372e-38
-0.14148 -0.021708572 0.78600001 1.7427785e-38
-0.13998286 -0.021708572 0.78600001 1.6415463e-38
-0.13883811 -0.021763811 0.78800005 1.5388007e-38
-0.13733715 -0.021763811 0.78800005 1.3439687e-38
-0.1358362 -0.021763811 0.78800005 1.1615198e-38
-0.13312763 -0.022316191 0.80800003 1.097376e-38
-0.13158856 -0.022316191 0.80800003 1.2272387e-38
-0.13037144 -0.02237143 0.81000006 1.3641727e-38
-0.12882857 -0.02237143 0.81000006 1.7880211e-38
-0.12728572 -0.02237143 0.81000006 2.2038305e-38
-0.12574287 -0.02237143 0.81000006 2.2585759e-38
-0.12450667 -0.022426667 0.81200004 2.3226442e-38
-0.12296 -0.022426667 0.81200004 2.3134954e-38
-0.19018859 -0.020622859 0.80200005 6.8978174e-39
-0.18866096 -0.020622859 0.80200005 8.9189228e-39
-0.18713334 -0.020622859 0.80200005 1.1068135e-38
-0.18514286 -0.020571429 0.80000001 1.4391838e-38
-0.18361905 -0.020571429 0.80000001 1.7692893e-38
-0.18164001 -0.020520002 0.79800004 1.7417027e-38
-0.17552668 -0.020339999 0.79100001 8.0916284e-39
-0.17358001 -0.020288572 0.78900003 6.3391674e-39
-0.17207715 -0.020288572 0.78900003 4.7019169e-39
-0.17057429 -0.020288572 0.78900003 9.1254518e-39
-0.16885714 -0.020262858 0.78800005 1.3642975e-38
-0.16693142 -0.020211428 0.78600001 1.5859948e-38
-0.16543429 -0.020211428 0.78600001 1.8062202e-38
-0.16393714 -0.020211428 0.78600001 1.7693063e-38
-0.16244 -0.020211428 0.78600001 1.7325727e-38
-0.16094287 -0.020211428 0.78600001 1.7137041e-38
-0.15904 -0.020160001 0.78400004 1.6954824e-38
-0.15754667 -0.020160001 0.78400004 1.5118853e-38
-0.15605333 -0.020160001 0.78400004 1.3271737e-38
-0.15456001 -0.020160001 0.78400004 8.4787105e-39
-0.15306666 -0.020160001 0.78400004 3.6881965e-39
-0.15196 -0.020211428 0.78600001 4.9789143e-39
-0.15008001 -0.020160001 0.78400004 6.2642624e-39
-0.14858668 -0.020160001 0.78400004 6.0806026e-39
-0.14709334 -0.020160001 0.78400004 6.0006249e-39
-0.14560001 -0.020160001 0.78400004 8.4920411e-39
-0.14410667 -0.020160001 0.78400004 1.1070619e-38
-0.14261334 -0.020160001 0.78400004 1.4016538e-38
-0.14112 -0.020160001 0.78400004 1.7053969e-38
-0.13998286 -0.020211428 0.78600001 1.641834e-38
-0.13883811 -0.020262858 0.78800005 1.5845041e-38
-0.13733715 -0.020262858 0.78800005 1.3807755e-38
-0.13312763 -0.020777144 0.80800003 1.1159588e-38
-0.13158856 -0.020777144 0.80800003 1.245821e-38
-0.13037144 -0.020828571 0.81000006 1.3824685e-38
-0.12882857 -0.020828571 0.81000006 1.7972412e-38
-0.12728572 -0.020828571 0.81000006 2.2222703e-38
-0.12605333 -0.020880001 0.81200004 2.2771233e-38
-0.12450667 -0.020880001 0.81200004 2.3413356e-38
-0.12296 -0.020880001 0.81200004 2.3412987e-38
-0.18866096 -0.019095238 0.80200005 8.6380143e-39
-0.18713334 -0.019095238 0.80200005 9.9650229e-39
-0.18560573 -0.019095238 0.80200005 1.365608e-38
-0.18407811 -0.019095238 0.80200005 1.7326274e-38
-0.18209523 -0.019047618 0.80000001 1.7142964e-38
-0.18012001 -0.019000001 0.79800004 1.7051791e-38
-0.17402001 -0.018833334 0.79100001 6.7194293e-39
-0.17251334 -0.018833334 0.79100001 4.6082835e-39
-0.17100666 -0.018833334 0.79100001 7.2790407e-39
-0.16756858 -0.018785715 0.78900003 1.1988508e-38
-0.16606572 -0.018785715 0.78900003 1.3921354e-38
-0.16435429 -0.018761905 0.78800005 1.4844011e-38
-0.16285335 -0.018761905 0.78800005 1.5766689e-38
-0.16094287 -0.018714285 0.78600001 1.5574786e-38
-0.15944572 -0.018714285 0.78600001 1.5484773e-38
-0.15794858 -0.018714285 0.78600001 1.2725431e-38
-0.15605333 -0.018666666 0.78400004 9.957072e-39
-0.15456001 -0.018666666 0.78400004 7.4617083e-39
-0.15306666 -0.018666666 0.78400004 4.8838629e-39
-0.15196 -0.018714285 0.78600001 5.7146927e-39
-0.15008001 -0.018666666 0.78400004 6.5419142e-39
-0.14858668 -0.018666666 0.78400004 6.1752743e-39
-0.14709334 -0.018666666 0.78400004 5.8086848e-39
-0.14560001 -0.018666666 0.78400004 8.0188702e-39
-0.14410667 -0.018666666 0.78400004 1.0321206e-38
-0.14261334 -0.018666666 0.78400004 1.0878668e-38
-0.14112 -0.018666666 0.78400004 1.1436204e-38
-0.13519429 -0.019095238 0.80200005 1.1428639e-38
-0.13399999 -0.019142857 0.80400002 1.1241738e-38
-0.13312763 -0.019238096 0.80800003 1.1161746e-38
-0.13158856 -0.019238096 0.80800003 1.2538566e-38
-0.13004953 -0.019238096 0.80800003 1.4007643e-38
-0.12882857 -0.019285716 0.81000006 1.8340839e-38
-0.12728572 -0.019285716 0.81000006 2.2682965e-38
-0.12605333 -0.019333335 0.81200004 2.3049621e-38
-0.12450667 -0.019333335 0.81200004 2.3416238e-38
-0.18866096 -0.01756762 0.80200005 8.3574842e-39
-0.1876 -0.017611429 0.80400002 8.8583321e-39
-0.18560573 -0.01756762 0.80200005 1.2920677e-38
-0.18361905 -0.017523808 0.80000001 1.695713e-38
-0.18209523 -0.017523808 0.80000001 1.6955333e-38
-0.18012001 -0.017479999 0.79800004 1.6957804e-38
-0.1783762 -0.017458096 0.79700005 1.32743e-38
-0.17446001 -0.017370475 0.79300004 6.9927778e-39
-0.17338572 -0.017414285 0.79500002 4.5139355e-39
-0.17143907 -0.017370475 0.79300004 5.4330065e-39
-0.16756858 -0.017282858 0.78900003 8.1109846e-39
-0.16606572 -0.017282858 0.78900003 9.7726443e-39
