# .PCD v0.7 - Point Cloud Data file format
VERSION 0.7
FIELDS x y z rgb
SIZE 4 4 4 4
TYPE F F F F
COUNT 1 1 1 1
WIDTH 89
HEIGHT 1
VIEWPOINT 0 0 0 1 0 0 0
POINTS 89
DATA ascii
0.59948766 0.094013333 1.2820001 7.1147875e-39
0.60192961 0.094013333 1.2820001 5.5108514e-39
0.60437143 0.094013333 1.2820001 4.0411234e-39
0.60681337 0.094013333 1.2820001 2.2962475e-39
0.60925525 0.094013333 1.2820001 6.4321842e-40
0.59937429 0.096831433 1.2870001 8.3050238e-39
0.59948766 0.096455246 1.2820001 1.162258e-38
0.60192961 0.096455246 1.2820001 1.0601986e-38
0.60437143 0.096455246 1.2820001 9.5813881e-39
0.60681337 0.096455246 1.2820001 7.8221615e-39
0.60925525 0.096455246 1.2820001 6.1547733e-39
0.6116972 0.096455246 1.2820001 5.5112088e-39
0.59877807 0.099591427 1.291 6.9921108e-39
0.59937429 0.099282861 1.2870001 1.1543022e-38
0.60182577 0.099282861 1.2870001 1.6129766e-38
0.60427713 0.099282861 1.2870001 1.5665918e-38
0.60437143 0.098897144 1.2820001 1.518667e-38
0.60444665 0.098511435 1.2770001 1.3438944e-38
0.60687906 0.098511435 1.2770001 1.1694044e-38
0.60931146 0.098511435 1.2770001 1.0592353e-38
0.6093486 0.098125719 1.2720001 9.4749006e-39
0.59862858 0.10244571 1.296 4.3181096e-39
0.59877807 0.10205048 1.291 5.5353503e-39
0.60123712 0.10205048 1.291 7.1945494e-39
0.60369617 0.10205048 1.291 8.8540301e-39
0.60427713 0.10173429 1.2870001 9.0373269e-39
0.60437143 0.10133905 1.2820001 9.1288443e-39
0.60444665 0.10094381 1.2770001 1.0872324e-38
0.60450286 0.10054857 1.2720001 1.2546837e-38
0.60692573 0.10054857 1.2720001 1.2352353e-38
0.6093486 0.10054857 1.2720001 1.2158219e-38
0.60744286 0.099837147 1.263 1.1322314e-38
0.60984856 0.099837147 1.263 1.0578661e-38
0.59862858 0.10491429 1.296 2.4831822e-39
0.60109711 0.10491429 1.296 4.0426172e-39
0.60123712 0.10450953 1.291 2.8473446e-39
0.60182577 0.10418572 1.2870001 1.6538391e-39
0.60427713 0.10418572 1.2870001 2.3892391e-39
0.6020143 0.10337619 1.2770001 3.1483323e-39
0.60207999 0.10297143 1.2720001 8.3058435e-39
0.60450286 0.10297143 1.2720001 1.3456539e-38
0.60501713 0.10264762 1.268 1.419949e-38
0.60503715 0.10224286 1.263 1.4928048e-38
0.60744286 0.10224286 1.263 1.4187596e-38
0.60984856 0.10224286 1.263 1.3434932e-38
0.60109711 0.10738286 1.296 2.9416197e-39
0.60123712 0.10696857 1.291 2.7568599e-39
0.60182577 0.10663714 1.2870001 2.6639581e-39
0.60427713 0.10663714 1.2870001 2.9416282e-39
0.6020143 0.10580858 1.2770001 3.3211572e-39
0.60207999 0.1053943 1.2720001 4.9734689e-39
0.60260189 0.10506286 1.268 6.7180673e-39
0.60501713 0.10506286 1.268 9.3153726e-39
0.60503715 0.10464858 1.263 1.1901119e-38
0.60744286 0.10464858 1.263 1.308207e-38
0.60109711 0.10985143 1.296 1.9335789e-39
0.60123712 0.10942762 1.291 2.7600927e-39
0.60182577 0.10908858 1.2870001 3.6780918e-39
0.59958196 0.10824096 1.2770001 3.5859003e-39
0.6020143 0.10824096 1.2770001 3.492274e-39
0.60207999 0.10781715 1.2720001 1.745966e-39
0.60260189 0.10747809 1.268 1.0121579e-40
0.60501713 0.10747809 1.268 4.4315111e-39
0.60503715 0.10705429 1.263 8.8468232e-39
0.60744286 0.10705429 1.263 1.2068274e-38
0.60984856 0.10705429 1.263 1.5283545e-38
0.6020143 0.11067334 1.2770001 2.5757141e-39
0.60207999 0.11024 1.2720001 1.8414029e-39
0.60260189 0.10989333 1.268 1.1070692e-39
0.60263145 0.10946 1.263 2.9412596e-39
0.60503715 0.10946 1.263 4.8677157e-39
0.60744286 0.10946 1.263 6.5398319e-39
0.60984856 0.10946 1.263 8.3062219e-39
0.60207999 0.11266286 1.2720001 1.8442643e-39
0.60450286 0.11266286 1.2720001 2.1183303e-39
0.60263145 0.11186571 1.263 1.4708141e-39
0.60743237 0.11230858 1.268 9.194718e-40
0.60984766 0.11230858 1.268 1.1031736e-39
0.60984856 0.11186571 1.263 1.2882781e-39
0.60260189 0.11472381 1.268 1.8438958e-39
0.60263145 0.11427142 1.263 1.4751175e-39
0.60503715 0.11427142 1.263 1.1066951e-39
0.60984766 0.11472381 1.268 1.5640761e-39
0.61904007 0.11508571 1.2720001 5.3476884e-39
0.61904007 0.11750858 1.2720001 2.3952997e-39
0.62146288 0.11750858 1.2720001 3.1354025e-39
0.63639528 0.12727906 1.2490001 4.2334151e-39
0.63401622 0.1296581 1.2490001 3.03453e-39
0.63639528 0.1296581 1.2490001 4.5975313e-39
