# .PCD v0.7 - Point Cloud Data file format
VERSION 0.7
FIELDS x y z rgb
SIZE 4 4 4 4
TYPE F F F F
COUNT 1 1 1 1
WIDTH 102
HEIGHT 1
VIEWPOINT 0 0 0 1 0 0 0
POINTS 102
DATA ascii
0.67811906 0.027124763 1.4990001 1.2889694e-38
0.67779428 0.026998097 1.4920001 1.0685632e-38
0.68063623 0.026998097 1.4920001 8.4816154e-39
0.68347812 0.026998097 1.4920001 1.1156001e-38
0.68356001 0.026889525 1.4860001 1.3800538e-38
0.68639052 0.026889525 1.4860001 1.095109e-38
0.67495245 0.029840002 1.4920001 1.2609884e-38
0.67779428 0.029840002 1.4920001 1.0673074e-38
0.68063623 0.029840002 1.4920001 8.7553198e-39
0.68072957 0.029720001 1.4860001 1.1061281e-38
0.68356001 0.029720001 1.4860001 1.3344569e-38
0.68639052 0.029720001 1.4860001 1.0207054e-38
0.67211056 0.032681905 1.4920001 8.2911257e-39
0.67495245 0.032681905 1.4920001 8.7484913e-39
0.67779428 0.032681905 1.4920001 8.0163002e-39
0.68063623 0.032681905 1.4920001 7.376344e-39
0.68072957 0.032550476 1.4860001 8.3876345e-39
0.68356001 0.032550476 1.4860001 9.4910477e-39
0.69328284 0.033785716 1.419 3.6780918e-39
0.69598573 0.033785716 1.419 4.2294621e-39
0.69868857 0.033785716 1.419 3.4033014e-39
0.7013914 0.033785716 1.419 2.6678971e-39
0.69328284 0.03648857 1.419 3.4022238e-39
0.69598573 0.03648857 1.419 3.6784477e-39
0.69868857 0.03648857 1.419 2.943405e-39
0.7013914 0.03648857 1.419 2.2083623e-39
0.69328284 0.039191429 1.419 3.1263571e-39
0.69598573 0.039191429 1.419 3.1267159e-39
0.69868857 0.039191429 1.419 2.4842261e-39
0.7013914 0.039191429 1.419 1.8406602e-39
0.70380867 0.03902572 1.4130001 1.7466737e-39
0.70650005 0.03902572 1.4130001 1.7459562e-39
0.69328284 0.041894287 1.419 3.2181926e-39
0.69598573 0.041894287 1.419 2.9430449e-39
0.69573432 0.041717146 1.4130001 2.3916732e-39
0.69842577 0.041717146 1.4130001 1.8403015e-39
0.70111716 0.041717146 1.4130001 1.5633614e-39
0.70380867 0.041717146 1.4130001 1.3793317e-39
0.70650005 0.041717146 1.4130001 1.6544795e-39
0.66098577 0.045728575 1.455 1.3264544e-38
0.69058001 0.044597141 1.419 3.7709979e-39
0.69035149 0.044408575 1.4130001 3.2199849e-39
0.69304293 0.044408575 1.4130001 2.7590137e-39
0.69573432 0.044408575 1.4130001 2.2994775e-39
0.69546002 0.044220004 1.4070001 1.8399427e-39
0.69814003 0.044220004 1.4070001 1.4711686e-39
0.70082003 0.044220004 1.4070001 1.104184e-39
0.70350003 0.044220004 1.4070001 1.6555543e-39
0.68766004 0.0471 1.4130001 3.8621159e-39
0.69035149 0.0471 1.4130001 3.0348776e-39
0.69304293 0.0471 1.4130001 2.2076406e-39
0.69573432 0.0471 1.4130001 2.2072819e-39
0.69546002 0.0469 1.4070001 2.2987615e-39
0.69814003 0.0469 1.4070001 2.1150947e-39
0.70082003 0.0469 1.4070001 2.0232564e-39
0.70650005 0.0471 1.4130001 2.1147317e-39
0.71220285 0.0473 1.419 2.2065672e-39
0.71490568 0.0473 1.419 2.1150905e-39
0.68766004 0.049791433 1.4130001 4.0447107e-39
0.69035149 0.049791433 1.4130001 2.8501304e-39
0.69304293 0.049791433 1.4130001 1.7484646e-39
0.69573432 0.049791433 1.4130001 2.2051323e-39
0.69546002 0.04958 1.4070001 2.7568642e-39
0.69814003 0.04958 1.4070001 2.8494185e-39
0.70082003 0.04958 1.4070001 3.0323692e-39
0.70350003 0.04958 1.4070001 2.6646671e-39
0.71220285 0.050002858 1.419 2.2980426e-39
0.71490568 0.050002858 1.419 2.2069246e-39
0.68766004 0.052482858 1.4130001 3.4944166e-39
0.69035149 0.052482858 1.4130001 2.4835059e-39
0.69304293 0.052482858 1.4130001 1.4729595e-39
0.69573432 0.052482858 1.4130001 2.4838702e-39
0.70380867 0.052482858 1.4130001 3.4954928e-39
0.70950001 0.052705713 1.419 3.2181912e-39
0.71220285 0.052705713 1.419 2.9408897e-39
0.71792859 0.052928574 1.4250001 2.4820709e-39
0.72367722 0.053151432 1.4310001 2.1147303e-39
0.72640294 0.053151432 1.4310001 1.8388665e-39
0.70679718 0.055408571 1.419 3.9561206e-39
0.70950001 0.055408571 1.419 3.7706447e-39
0.71521431 0.055642858 1.4250001 3.5855374e-39
0.7209515 0.055877149 1.4310001 2.8494185e-39
0.72367722 0.055877149 1.4310001 2.1143744e-39
0.72640294 0.055877149 1.4310001 1.930702e-39
0.70409429 0.058111429 1.419 4.2338173e-39
0.70679718 0.058111429 1.419 4.2345124e-39
0.70950001 0.058111429 1.419 4.2312628e-39
0.71220285 0.058111429 1.419 4.1387098e-39
0.71792859 0.058357142 1.4250001 3.3093205e-39
0.72367722 0.058602862 1.4310001 2.3898851e-39
0.72640294 0.058602862 1.4310001 2.3895222e-39
0.7013914 0.060814284 1.419 4.3256276e-39
0.70409429 0.060814284 1.419 4.417833e-39
0.70679718 0.060814284 1.419 4.6007753e-39
0.70950001 0.060814284 1.419 4.6918822e-39
0.71220285 0.060814284 1.419 4.7815625e-39
0.71792859 0.061071429 1.4250001 3.7695769e-39
0.72064292 0.061071429 1.4250001 2.7579488e-39
0.72335714 0.061071429 1.4250001 2.9405407e-39
0.7013914 0.063517146 1.419 3.4051132e-39
0.70409429 0.063517146 1.419 3.7731769e-39
0.70679718 0.063517146 1.419 4.0493994e-39
