# .PCD v0.7 - Point Cloud Data file format
VERSION 0.7
FIELDS x y z rgb
SIZE 4 4 4 4
TYPE F F F F
COUNT 1 1 1 1
WIDTH 107
HEIGHT 1
VIEWPOINT 0 0 0 1 0 0 0
POINTS 107
DATA ascii
0.61032385 0.026780954 1.48 8.1819701e-39
0.61024284 0.026654286 1.473 5.0606423e-39
0.61304861 0.026654286 1.473 5.7974828e-39
0.61585432 0.026654286 1.473 6.6261505e-39
0.61866003 0.026654286 1.473 5.5208931e-39
0.62146568 0.026654286 1.473 4.4152799e-39
0.61032385 0.0296 1.48 8.9141444e-39
0.61024284 0.02946 1.473 4.9670131e-39
0.61304861 0.02946 1.473 6.444992e-39
0.61334574 0.029340003 1.4670001 7.9122062e-39
0.61614007 0.029340003 1.4670001 6.5325199e-39
0.62146568 0.02946 1.473 5.15104e-39
0.61334574 0.032134287 1.4670001 7.0928614e-39
0.61614007 0.032134287 1.4670001 5.982586e-39
0.59327716 0.041894287 1.419 4.9691655e-39
0.59597999 0.041894287 1.419 4.6014634e-39
0.59868288 0.041894287 1.419 4.2341214e-39
0.60138571 0.041894287 1.419 4.2341228e-39
0.6040886 0.041894287 1.419 4.2344829e-39
0.59202003 0.045540005 1.4490001 1.1600705e-38
0.59478003 0.045540005 1.4490001 9.2990699e-39
0.59327716 0.044597141 1.419 5.0570577e-39
0.59597999 0.044597141 1.419 4.5985991e-39
0.59615147 0.044408575 1.4130001 4.2326893e-39
0.59884286 0.044408575 1.4130001 4.3259569e-39
0.6040886 0.044597141 1.419 4.5096293e-39
0.60422575 0.044408575 1.4130001 4.2337655e-39
0.6069172 0.044408575 1.4130001 4.0500959e-39
0.60960859 0.044408575 1.4130001 4.1422929e-39
0.58926004 0.048300002 1.4490001 1.4187928e-38
0.59202003 0.048300002 1.4490001 1.2897169e-38
0.59231716 0.048100002 1.4430001 1.1606798e-38
0.59506571 0.048100002 1.4430001 1.0865647e-38
0.59327716 0.0473 1.419 8.1930978e-39
0.59346002 0.0471 1.4130001 5.607719e-39
0.59615147 0.0471 1.4130001 3.1295899e-39
0.59884286 0.0471 1.4130001 3.5901967e-39
0.60153431 0.0471 1.4130001 4.0504504e-39
0.60422575 0.0471 1.4130001 3.9586163e-39
0.6069172 0.0471 1.4130001 3.8678612e-39
0.60486287 0.046733335 1.4020001 4.0515378e-39
0.61230004 0.0471 1.4130001 4.1437362e-39
0.61499143 0.0471 1.4130001 3.868234e-39
0.59506571 0.050848573 1.4430001 1.3165126e-38
0.59327716 0.050002858 1.419 1.1320538e-38
0.59346002 0.049791433 1.4130001 6.6168263e-39
0.59615147 0.049791433 1.4130001 2.0264836e-39
0.59630007 0.04958 1.4070001 2.7625997e-39
0.59898001 0.04958 1.4070001 3.5901981e-39
0.60166001 0.04958 1.4070001 3.68347e-39
0.60434002 0.04958 1.4070001 3.775667e-39
0.60702002 0.04958 1.4070001 3.8678654e-39
0.60970002 0.04958 1.4070001 4.0504588e-39
0.61499143 0.049791433 1.4130001 3.9575471e-39
0.59327716 0.052705713 1.419 1.0866753e-38
0.59597999 0.052705713 1.419 6.5242677e-39
0.59615147 0.052482858 1.4130001 2.2072819e-39
0.59884286 0.052482858 1.4130001 2.2105105e-39
0.60153431 0.052482858 1.4130001 2.2112308e-39
0.60166001 0.05226 1.4070001 2.8540834e-39
0.6069172 0.052482858 1.4130001 3.4054565e-39
0.60960859 0.052482858 1.4130001 3.7720825e-39
0.61230004 0.052482858 1.4130001 4.1387014e-39
0.61499143 0.052482858 1.4130001 4.0475791e-39
0.62030572 0.052705713 1.419 4.0482966e-39
0.62037432 0.052482858 1.4130001 4.6947338e-39
0.59327716 0.055408571 1.419 1.0406859e-38
0.59597999 0.055408571 1.419 6.4320735e-39
0.59615147 0.055174291 1.4130001 2.4824297e-39
0.59884286 0.055174291 1.4130001 1.6584227e-39
0.60153431 0.055174291 1.4130001 9.2302269e-40
0.60166001 0.054940004 1.4070001 2.0246927e-39
0.60434002 0.054940004 1.4070001 3.1267229e-39
0.60486287 0.054744765 1.4020001 3.6781002e-39
0.60753334 0.054744765 1.4020001 4.3227367e-39
0.61020386 0.054744765 1.4020001 4.2308942e-39
0.61768293 0.055174291 1.4130001 4.2323291e-39
0.62037432 0.055174291 1.4130001 4.3270345e-39
0.59868288 0.058111429 1.419 3.3085918e-39
0.60138571 0.058111429 1.419 3.034523e-39
0.60153431 0.057865717 1.4130001 2.8526457e-39
0.60166001 0.057620004 1.4070001 3.2199877e-39
0.60434002 0.057620004 1.4070001 3.6795323e-39
0.60486287 0.05741524 1.4020001 3.5880654e-39
0.60753334 0.05741524 1.4020001 3.4965802e-39
0.61020386 0.05741524 1.4020001 3.7713622e-39
0.61506003 0.057620004 1.4070001 3.9571842e-39
0.60138571 0.060814284 1.419 4.5089132e-39
0.60153431 0.060557149 1.4130001 4.8755377e-39
0.60166001 0.0603 1.4070001 4.507837e-39
0.60434002 0.0603 1.4070001 4.2312628e-39
0.60486287 0.060085718 1.4020001 3.4958711e-39
0.60753334 0.060085718 1.4020001 2.7611816e-39
0.60759234 0.059828572 1.396 3.2203548e-39
0.61025149 0.059828572 1.396 3.7713622e-39
0.61291051 0.059828572 1.396 3.4958515e-39
0.61556953 0.059828572 1.396 3.3143455e-39
0.59884286 0.063248575 1.4130001 5.06208e-39
0.60153431 0.063248575 1.4130001 4.0529657e-39
0.60422575 0.063248575 1.4130001 4.1394202e-39
0.60434002 0.062980004 1.4070001 4.2319816e-39
0.60486287 0.062756196 1.4020001 3.7728125e-39
0.60753334 0.062756196 1.4020001 3.4054678e-39
0.60759234 0.062487617 1.396 3.7720909e-39
0.61025149 0.062487617 1.396 4.138707e-39
0.61291051 0.062487617 1.396 4.690429e-39
0.61556953 0.062487617 1.396 5.2425392e-39
