# .PCD v0.7 - Point Cloud Data file format
VERSION 0.7
FIELDS x y z rgb
SIZE 4 4 4 4
TYPE F F F F
COUNT 1 1 1 1
WIDTH 1074
HEIGHT 1
VIEWPOINT 0 0 0 1 0 0 0
POINTS 1074
DATA ascii
-0.24431428 0.10826476 1.006 2.3400835e-38
-0.2423981 0.10826476 1.006 2.3402632e-38
-0.24096 0.10848 1.008 2.3404788e-38
-0.23975144 0.10880286 1.011 2.3407302e-38
-0.23853144 0.10912572 1.0140001 2.3410173e-38
-0.23660001 0.10912572 1.0140001 2.3409092e-38
-0.23466858 0.10912572 1.0140001 2.340801e-38
-0.23273715 0.10912572 1.0140001 2.3406932e-38
-0.23148859 0.10944857 1.0170001 2.3403345e-38
-0.22955145 0.10944857 1.0170001 2.340191e-38
-0.22792001 0.11149333 1.036 2.3397246e-38
-0.22725524 0.11213905 1.0420001 2.3397246e-38
-0.22527048 0.11213905 1.0420001 2.3397246e-38
-0.22328572 0.11213905 1.0420001 2.3396529e-38
-0.2220524 0.1135381 1.0550001 2.3397992e-38
-0.22004287 0.1135381 1.0550001 2.3396945e-38
-0.21803334 0.1135381 1.0550001 2.3396998e-38
-0.21602382 0.1135381 1.0550001 2.2937876e-38
-0.28379145 0.11138573 1.0170001 2.3036463e-38
-0.2818543 0.11138573 1.0170001 2.3128575e-38
-0.27991715 0.11138573 1.0170001 2.3312597e-38
-0.27715999 0.11105715 1.0140001 2.3311872e-38
-0.27522859 0.11105715 1.0140001 2.3311514e-38
-0.27168 0.1104 1.008 2.330972e-38
-0.26922476 0.11018095 1.006 2.3400119e-38
-0.26730859 0.11018095 1.006 2.3400476e-38
-0.26592001 0.1104 1.008 2.3401192e-38
-0.26347622 0.11018095 1.006 2.340191e-38
-0.26155999 0.11018095 1.006 2.3402986e-38
-0.25964382 0.11018095 1.006 2.340191e-38
-0.25772762 0.11018095 1.006 2.3401192e-38
-0.25581145 0.11018095 1.006 2.3401911e-38
-0.25389522 0.11018095 1.006 2.3402627e-38
-0.25197905 0.11018095 1.006 2.3311509e-38
-0.25006285 0.11018095 1.006 2.3312228e-38
-0.24814668 0.11018095 1.006 2.331223e-38
-0.2462305 0.11018095 1.006 2.3404065e-38
-0.24431428 0.11018095 1.006 2.3405859e-38
-0.2423981 0.11018095 1.006 2.3408018e-38
-0.24096 0.1104 1.008 2.3406233e-38
-0.23975144 0.11072858 1.011 2.3412336e-38
-0.23853144 0.11105715 1.0140001 2.3410905e-38
-0.23660001 0.11105715 1.0140001 2.3409457e-38
-0.23466858 0.11105715 1.0140001 2.340837e-38
-0.23273715 0.11105715 1.0140001 2.3407292e-38
-0.23148859 0.11138573 1.0170001 2.3402629e-38
-0.22955145 0.11138573 1.0170001 2.3400475e-38
-0.22922762 0.11313809 1.033 2.339904e-38
-0.22792001 0.11346667 1.036 2.3397246e-38
-0.22725524 0.11412381 1.0420001 2.3396529e-38
-0.22527048 0.11412381 1.0420001 2.3396529e-38
-0.22328572 0.11412381 1.0420001 2.3396529e-38
-0.22142096 0.11521905 1.052 2.3397993e-38
-0.21941715 0.11521905 1.052 2.3396588e-38
-0.21741334 0.11521905 1.052 2.3396278e-38
-0.28379145 0.11332286 1.0170001 2.2751279e-38
-0.2818543 0.11332286 1.0170001 2.2936309e-38
-0.27991715 0.11332286 1.0170001 2.3211083e-38
-0.27715999 0.11298858 1.0140001 2.3210707e-38
-0.27522859 0.11298858 1.0140001 2.3212501e-38
-0.26976001 0.11232001 1.008 2.3399759e-38
-0.26784 0.11232001 1.008 2.3400834e-38
-0.26592001 0.11232001 1.008 2.3400475e-38
-0.264 0.11232001 1.008 2.3404421e-38
-0.26207998 0.11232001 1.008 2.3402627e-38
-0.25964382 0.11209714 1.006 2.3402986e-38
-0.25824001 0.11232001 1.008 2.340263e-38
-0.25581145 0.11209714 1.006 2.340873e-38
-0.25389522 0.11209714 1.006 2.340227e-38
-0.25197905 0.11209714 1.006 2.3404062e-38
-0.25006285 0.11209714 1.006 2.3404062e-38
-0.24814668 0.11209714 1.006 2.3410521e-38
-0.2462305 0.11209714 1.006 2.3403346e-38
-0.24431428 0.11209714 1.006 2.340801e-38
-0.24288 0.11232001 1.008 2.3408013e-38
-0.24096 0.11232001 1.008 2.3408017e-38
-0.23975144 0.11265428 1.011 2.3405508e-38
-0.23853144 0.11298858 1.0140001 2.3402999e-38
-0.23660001 0.11298858 1.0140001 2.3402276e-38
-0.23466858 0.11298858 1.0140001 2.3401911e-38
-0.23273715 0.11298858 1.0140001 2.3401911e-38
-0.23080572 0.11298858 1.0140001 2.340227e-38
-0.22955145 0.11332286 1.0170001 2.3401192e-38
-0.22922762 0.11510571 1.033 2.3398681e-38
-0.22792001 0.11544 1.036 2.3397246e-38
-0.22725524 0.11610858 1.0420001 2.3396888e-38
-0.22527048 0.11610858 1.0420001 2.3396888e-38
-0.22392859 0.11644286 1.0450001 2.3396529e-38
-0.22257526 0.11677715 1.0480001 2.339617e-38
-0.22142096 0.11722286 1.052 2.3396197e-38
-0.21941715 0.11722286 1.052 2.3396584e-38
-0.21803334 0.11755715 1.0550001 2.3396989e-38
-0.21602382 0.11755715 1.0550001 2.2843869e-38
-0.28379145 0.11526 1.0170001 2.256941e-38
-0.2818543 0.11526 1.0170001 2.2936324e-38
-0.27991715 0.11526 1.0170001 2.3302565e-38
-0.27715999 0.11492001 1.0140001 2.3302541e-38
-0.27522859 0.11492001 1.0140001 2.3302541e-38
-0.27168 0.11424001 1.008 2.3306846e-38
-0.26976001 0.11424001 1.008 2.3399758e-38
-0.26784 0.11424001 1.008 2.3399758e-38
-0.26592001 0.11424001 1.008 2.3400116e-38
-0.264 0.11424001 1.008 2.3401194e-38
-0.26207998 0.11424001 1.008 2.3402629e-38
-0.26016 0.11424001 1.008 2.3402629e-38
-0.25824001 0.11424001 1.008 2.3404067e-38
-0.25632 0.11424001 1.008 2.3402995e-38
-0.25439999 0.11424001 1.008 2.3401914e-38
-0.25197905 0.11401334 1.006 2.3402986e-38
-0.25006285 0.11401334 1.006 2.3404062e-38
-0.24814668 0.11401334 1.006 2.3403345e-38
-0.2462305 0.11401334 1.006 2.3402986e-38
-0.24431428 0.11401334 1.006 2.3402986e-38
-0.24288 0.11424001 1.008 2.3402986e-38
-0.24096 0.11424001 1.008 2.3402627e-38
-0.23975144 0.11458001 1.011 2.3402269e-38
-0.23782572 0.11458001 1.011 2.3402269e-38
-0.23660001 0.11492001 1.0140001 2.3402627e-38
-0.23397429 0.11458001 1.011 2.3402627e-38
-0.23273715 0.11492001 1.0140001 2.3402986e-38
-0.23080572 0.11492001 1.0140001 2.3403346e-38
-0.22955145 0.11526 1.0170001 2.3403705e-38
-0.22922762 0.11707333 1.033 2.3398323e-38
-0.22792001 0.11741333 1.036 2.3397605e-38
-0.22725524 0.11809334 1.0420001 2.3397246e-38
-0.22527048 0.11809334 1.0420001 2.3396529e-38
-0.22328572 0.11809334 1.0420001 2.3396529e-38
-0.22257526 0.11877334 1.0480001 2.3396529e-38
-0.22142096 0.11922667 1.052 2.3396554e-38
-0.21941715 0.11922667 1.052 2.3396938e-38
-0.21803334 0.11956667 1.0550001 2.3397698e-38
-0.21602382 0.11956667 1.0550001 2.2843858e-38
-0.28572857 0.11719715 1.0170001 2.238544e-38
-0.28379145 0.11719715 1.0170001 2.2386107e-38
-0.2818543 0.11719715 1.0170001 2.2845953e-38
-0.27991715 0.11719715 1.0170001 2.3394775e-38
-0.27715999 0.11685143 1.0140001 2.3394377e-38
-0.27522859 0.11685143 1.0140001 2.3396888e-38
-0.27329713 0.11685143 1.0140001 2.3399399e-38
-0.26784 0.11616 1.008 2.339904e-38
-0.26671141 0.11650571 1.011 2.3400116e-38
-0.26478574 0.11650571 1.011 2.3400835e-38
-0.26286003 0.11650571 1.011 2.3401192e-38
-0.26016 0.11616 1.008 2.3401551e-38
-0.25824001 0.11616 1.008 2.3401194e-38
-0.25632 0.11616 1.008 2.3400838e-38
-0.25439999 0.11616 1.008 2.3400835e-38
-0.25197905 0.11592953 1.006 2.3400834e-38
-0.25006285 0.11592953 1.006 2.3404421e-38
-0.24814668 0.11592953 1.006 2.3403345e-38
-0.2462305 0.11592953 1.006 2.3402986e-38
-0.2448 0.11616 1.008 2.3402986e-38
-0.24288 0.11616 1.008 2.3402627e-38
-0.24167715 0.11650571 1.011 2.3402627e-38
-0.23975144 0.11650571 1.011 2.3403345e-38
-0.23782572 0.11650571 1.011 2.3404422e-38
-0.23660001 0.11685143 1.0140001 2.3404421e-38
-0.23466858 0.11685143 1.0140001 2.340478e-38
-0.23273715 0.11685143 1.0140001 2.3404421e-38
-0.23148859 0.11719715 1.0170001 2.3404064e-38
-0.22962856 0.11823429 1.026 2.3399758e-38
-0.22725524 0.1200781 1.0420001 2.3396888e-38
-0.22527048 0.1200781 1.0420001 2.3396529e-38
-0.22328572 0.1200781 1.0420001 2.3396529e-38
-0.22142096 0.12123048 1.052 2.339655e-38
-0.21941715 0.12123048 1.052 2.3397649e-38
-0.21741334 0.12123048 1.052 2.3398051e-38
-0.21602382 0.1215762 1.0550001 2.2843853e-38
-0.28572857 0.11913429 1.0170001 2.2199967e-38
-0.28295431 0.11878286 1.0140001 2.2107742e-38
-0.28102285 0.11878286 1.0140001 2.2751277e-38
-0.27909145 0.11878286 1.0140001 2.3395147e-38
-0.27715999 0.11878286 1.0140001 2.3395453e-38
-0.27522859 0.11878286 1.0140001 2.3401192e-38
-0.27329713 0.11878286 1.0140001 2.33994e-38
-0.27136573 0.11878286 1.0140001 2.3399758e-38
-0.2694343 0.11878286 1.0140001 2.3400116e-38
-0.26750287 0.11878286 1.0140001 2.3400475e-38
-0.26557145 0.11878286 1.0140001 2.3400835e-38
-0.26286003 0.11843143 1.011 2.3401192e-38
-0.26093429 0.11843143 1.011 2.3401192e-38
-0.25900859 0.11843143 1.011 2.3401192e-38
-0.25708288 0.11843143 1.011 2.340191e-38
-0.25515714 0.11843143 1.011 2.3402986e-38
-0.25248 0.11808 1.008 2.3403704e-38
-0.25056002 0.11808 1.008 2.340478e-38
-0.24814668 0.11784572 1.006 2.3404062e-38
-0.24745429 0.11843143 1.011 2.3403704e-38
-0.24552859 0.11843143 1.011 2.3403704e-38
-0.24432573 0.11878286 1.0140001 2.3404062e-38
-0.24239428 0.11878286 1.0140001 2.3404421e-38
-0.24046285 0.11878286 1.0140001 2.3404781e-38
-0.23853144 0.11878286 1.0140001 2.3405141e-38
-0.23660001 0.11878286 1.0140001 2.3405857e-38
-0.23536287 0.11913429 1.0170001 2.3405497e-38
-0.23342572 0.11913429 1.0170001 2.3405497e-38
-0.23217146 0.11948573 1.0200001 2.3404781e-38
-0.23090571 0.11983714 1.023 2.3402269e-38
-0.22962856 0.12018858 1.026 2.3400475e-38
-0.22527048 0.12206285 1.0420001 2.3396888e-38
-0.22328572 0.12206285 1.0420001 2.3396888e-38
-0.2219381 0.12241429 1.0450001 2.339653e-38
-0.22142096 0.12323429 1.052 2.3396547e-38
-0.21941715 0.12323429 1.052 2.3397283e-38
-0.21741334 0.12323429 1.052 2.3398404e-38
-0.2848857 0.12071429 1.0140001 2.2107411e-38
-0.28379145 0.12107144 1.0170001 2.1924431e-38
-0.28102285 0.12071429 1.0140001 2.2660165e-38
-0.27909145 0.12071429 1.0140001 2.3395509e-38
-0.27715999 0.12071429 1.0140001 2.3396529e-38
-0.27522859 0.12071429 1.0140001 2.3400116e-38
-0.27329713 0.12071429 1.0140001 2.3399399e-38
-0.27136573 0.12071429 1.0140001 2.3399758e-38
-0.2694343 0.12071429 1.0140001 2.3400118e-38
-0.26750287 0.12071429 1.0140001 2.3400116e-38
-0.26557145 0.12071429 1.0140001 2.3401192e-38
-0.26286003 0.12035715 1.011 2.3401551e-38
-0.26093429 0.12035715 1.011 2.340191e-38
-0.25977716 0.12071429 1.0140001 2.340191e-38
-0.25708288 0.12035715 1.011 2.3402627e-38
-0.25515714 0.12035715 1.011 2.3402986e-38
-0.25323144 0.12035715 1.011 2.3404062e-38
-0.2513057 0.12035715 1.011 2.3404062e-38
-0.24937999 0.12035715 1.011 2.3404421e-38
-0.24745429 0.12035715 1.011 2.3404421e-38
-0.24625714 0.12071429 1.0140001 2.340478e-38
-0.24432573 0.12071429 1.0140001 2.340478e-38
-0.24239428 0.12071429 1.0140001 2.340478e-38
-0.24046285 0.12071429 1.0140001 2.3405139e-38
-0.23853144 0.12071429 1.0140001 2.3406216e-38
-0.23660001 0.12071429 1.0140001 2.3405856e-38
-0.23536287 0.12107144 1.0170001 2.3405856e-38
-0.23342572 0.12107144 1.0170001 2.3405857e-38
-0.23217146 0.12142859 1.0200001 2.3405859e-38
-0.23158285 0.12214286 1.026 2.3402629e-38
-0.22962856 0.12214286 1.026 2.3401194e-38
-0.22725524 0.12404761 1.0420001 2.3396888e-38
-0.22591905 0.12440477 1.0450001 2.3396888e-38
-0.22392859 0.12440477 1.0450001 2.3396888e-38
-0.2219381 0.12440477 1.0450001 2.339653e-38
-0.2848857 0.12264571 1.0140001 2.2475468e-38
-0.28295431 0.12264571 1.0140001 2.2383969e-38
-0.28102285 0.12264571 1.0140001 2.2844202e-38
-0.27909145 0.12264571 1.0140001 2.3304036e-38
-0.27798003 0.12300858 1.0170001 2.330577e-38
-0.27522859 0.12264571 1.0140001 2.3399399e-38
-0.27410576 0.12300858 1.0170001 2.3399399e-38
-0.27216858 0.12300858 1.0170001 2.3400118e-38
-0.27023143 0.12300858 1.0170001 2.3400119e-38
-0.26750287 0.12264571 1.0140001 2.3400118e-38
-0.26557145 0.12264571 1.0140001 2.3401192e-38
-0.26364002 0.12264571 1.0140001 2.3403704e-38
-0.26170859 0.12264571 1.0140001 2.3402269e-38
-0.25977716 0.12264571 1.0140001 2.340191e-38
-0.25784573 0.12264571 1.0140001 2.3402629e-38
-0.2559143 0.12264571 1.0140001 2.3402986e-38
-0.25398287 0.12264571 1.0140001 2.3403704e-38
-0.2513057 0.12228286 1.011 2.3404062e-38
-0.25012001 0.12264571 1.0140001 2.3404422e-38
-0.24818859 0.12264571 1.0140001 2.340514e-38
-0.24625714 0.12264571 1.0140001 2.3404781e-38
-0.24432573 0.12264571 1.0140001 2.3405139e-38
-0.24239428 0.12264571 1.0140001 2.3405497e-38
-0.24046285 0.12264571 1.0140001 2.3405856e-38
-0.23923716 0.12300858 1.0170001 2.3405856e-38
-0.23730002 0.12300858 1.0170001 2.3405856e-38
-0.23536287 0.12300858 1.0170001 2.3405856e-38
-0.23480286 0.12373429 1.023 2.3410521e-38
-0.23285428 0.12373429 1.023 2.3405501e-38
-0.23158285 0.12409715 1.026 2.3402989e-38
-0.23052382 0.12458096 1.0300001 2.3401913e-38
-0.22922762 0.1249438 1.033 2.3405857e-38
-0.22725524 0.12603238 1.0420001 2.3397246e-38
-0.22591905 0.12639524 1.0450001 2.3396888e-38
-0.22392859 0.12639524 1.0450001 2.3396888e-38
-0.2219381 0.12639524 1.0450001 2.3396889e-38
-0.28295431 0.12457716 1.0140001 2.2843875e-38
-0.28102285 0.12457716 1.0140001 2.3028252e-38
-0.27909145 0.12457716 1.0140001 2.3212569e-38
-0.27798003 0.12494572 1.0170001 2.3307205e-38
-0.27604288 0.12494572 1.0170001 2.3398681e-38
-0.27410576 0.12494572 1.0170001 2.3398681e-38
-0.27216858 0.12494572 1.0170001 2.3399758e-38
-0.27023143 0.12494572 1.0170001 2.3400835e-38
-0.2682943 0.12494572 1.0170001 2.3400835e-38
-0.26557145 0.12457716 1.0140001 2.3401192e-38
-0.26364002 0.12457716 1.0140001 2.3402986e-38
-0.26170859 0.12457716 1.0140001 2.3402627e-38
-0.25977716 0.12457716 1.0140001 2.3402627e-38
-0.25784573 0.12457716 1.0140001 2.3402629e-38
-0.2559143 0.12457716 1.0140001 2.3402986e-38
-0.25398287 0.12457716 1.0140001 2.3403704e-38
-0.25205144 0.12457716 1.0140001 2.3403345e-38
-0.25012001 0.12457716 1.0140001 2.3402986e-38
-0.24818859 0.12457716 1.0140001 2.3404062e-38
-0.24625714 0.12457716 1.0140001 2.3404781e-38
-0.24432573 0.12457716 1.0140001 2.3405139e-38
-0.24239428 0.12457716 1.0140001 2.3406215e-38
-0.2411743 0.12494572 1.0170001 2.3405856e-38
-0.23923716 0.12494572 1.0170001 2.3406573e-38
-0.23730002 0.12494572 1.0170001 2.3406215e-38
-0.23605718 0.1253143 1.0200001 2.3406215e-38
-0.23480286 0.12568285 1.023 2.3405856e-38
-0.23353714 0.12605143 1.026 2.3405499e-38
-0.23158285 0.12605143 1.026 2.3403705e-38
-0.23052382 0.12654287 1.0300001 2.3402988e-38
-0.22922762 0.12691143 1.033 2.3402269e-38
-0.22858 0.12764858 1.039 2.3398681e-38
-0.22725524 0.12801716 1.0420001 2.3396888e-38
-0.22268383 0.12998286 1.0580001 2.3396896e-38
-0.28647047 0.12551048 1.006 2.2843553e-38
-0.2845543 0.12551048 1.006 2.2844615e-38
-0.2826381 0.12551048 1.006 2.2936438e-38
-0.28102285 0.12650858 1.0140001 2.3120828e-38
-0.27909145 0.12650858 1.0140001 2.3305133e-38
-0.27798003 0.12688287 1.0170001 2.3305411e-38
-0.27604288 0.12688287 1.0170001 2.3397605e-38
-0.27410576 0.12688287 1.0170001 2.3398681e-38
-0.27216858 0.12688287 1.0170001 2.3399758e-38
-0.27023143 0.12688287 1.0170001 2.3400118e-38
-0.2682943 0.12688287 1.0170001 2.3401553e-38
-0.26557145 0.12650858 1.0140001 2.3401911e-38
-0.26364002 0.12650858 1.0140001 2.3402627e-38
-0.26170859 0.12650858 1.0140001 2.3402269e-38
-0.25977716 0.12650858 1.0140001 2.3402269e-38
-0.25784573 0.12650858 1.0140001 2.340227e-38
-0.25667146 0.12688287 1.0170001 2.3402986e-38
-0.25398287 0.12650858 1.0140001 2.3402627e-38
-0.25205144 0.12650858 1.0140001 2.3402269e-38
-0.25086001 0.12688287 1.0170001 2.3402986e-38
-0.24892287 0.12688287 1.0170001 2.3403345e-38
-0.24698573 0.12688287 1.0170001 2.3404422e-38
-0.2450486 0.12688287 1.0170001 2.3405497e-38
-0.24311143 0.12688287 1.0170001 2.3405497e-38
-0.2411743 0.12688287 1.0170001 2.3405856e-38
-0.23994288 0.12725715 1.0200001 2.3406573e-38
-0.23800002 0.12725715 1.0200001 2.3408008e-38
-0.23675144 0.12763143 1.023 2.3405497e-38
-0.23480286 0.12763143 1.023 2.3405856e-38
-0.23353714 0.12800571 1.026 2.3405497e-38
-0.23248573 0.12850477 1.0300001 2.3404421e-38
-0.23052382 0.12850477 1.0300001 2.3402627e-38
-0.22922762 0.12887904 1.033 2.3401551e-38
-0.22858 0.12962763 1.039 2.3397605e-38
-0.22725524 0.13000192 1.0420001 2.3396529e-38
-0.22406192 0.1316238 1.0550001 2.3396529e-38
-0.22268383 0.13199811 1.0580001 2.3396536e-38
-0.22129431 0.13237239 1.0610001 2.3396903e-38
-0.21927336 0.13237239 1.0610001 2.3397667e-38
-0.28857142 0.12666667 1 2.2846766e-38
-0.28752667 0.12704667 1.003 2.2845704e-38
-0.28561619 0.12704667 1.003 2.2936836e-38
-0.28370571 0.12704667 1.003 2.3030075e-38
-0.28179523 0.12704667 1.003 2.3123316e-38
-0.28102285 0.12844001 1.0140001 2.3306652e-38
-0.27991715 0.12882002 1.0170001 2.3396257e-38
-0.27798003 0.12882002 1.0170001 2.3395101e-38
-0.27604288 0.12882002 1.0170001 2.3398325e-38
-0.27410576 0.12882002 1.0170001 2.339904e-38
-0.27216858 0.12882002 1.0170001 2.3399399e-38
-0.27023143 0.12882002 1.0170001 2.3399758e-38
-0.2682943 0.12882002 1.0170001 2.3400835e-38
-0.26635715 0.12882002 1.0170001 2.3402271e-38
-0.26442003 0.12882002 1.0170001 2.340227e-38
-0.26248288 0.12882002 1.0170001 2.3402269e-38
-0.26054573 0.12882002 1.0170001 2.3402269e-38
-0.25860861 0.12882002 1.0170001 2.3402269e-38
-0.25667146 0.12882002 1.0170001 2.3402627e-38
-0.25473428 0.12882002 1.0170001 2.3402627e-38
-0.25205144 0.12844001 1.0140001 2.3402627e-38
-0.25086001 0.12882002 1.0170001 2.3402986e-38
-0.24892287 0.12882002 1.0170001 2.3403704e-38
-0.24698573 0.12882002 1.0170001 2.3404064e-38
-0.2450486 0.12882002 1.0170001 2.340478e-38
-0.24311143 0.12882002 1.0170001 2.3405139e-38
-0.2411743 0.12882002 1.0170001 2.3406575e-38
-0.23994288 0.12920001 1.0200001 2.3406934e-38
-0.23800002 0.12920001 1.0200001 2.3407294e-38
-0.23675144 0.12958001 1.023 2.3404784e-38
-0.23480286 0.12958001 1.023 2.3405141e-38
-0.23353714 0.12996 1.026 2.3405857e-38
-0.23248573 0.13046667 1.0300001 2.340514e-38
-0.23052382 0.13046667 1.0300001 2.340263e-38
-0.22922762 0.13084666 1.033 2.3400835e-38
-0.22858 0.13160668 1.039 2.3396529e-38
-0.22725524 0.13198668 1.0420001 2.3396888e-38
-0.28857142 0.12857142 1 2.2937883e-38
-0.28666666 0.12857142 1 2.302938e-38
-0.28476191 0.12857142 1 2.2936848e-38
-0.28370571 0.12895714 1.003 2.2939671e-38
-0.28179523 0.12895714 1.003 2.2939266e-38
-0.28072193 0.12934287 1.006 2.3031125e-38
-0.28074288 0.13114287 1.0200001 2.3120396e-38
-0.27880001 0.13114287 1.0200001 2.321108e-38
-0.27604288 0.13075715 1.0170001 2.3399047e-38
-0.27410576 0.13075715 1.0170001 2.339904e-38
-0.27216858 0.13075715 1.0170001 2.3399399e-38
-0.27023143 0.13075715 1.0170001 2.3400116e-38
-0.2682943 0.13075715 1.0170001 2.3400478e-38
-0.26635715 0.13075715 1.0170001 2.3401557e-38
-0.26442003 0.13075715 1.0170001 2.3402271e-38
-0.26248288 0.13075715 1.0170001 2.3402269e-38
-0.26054573 0.13075715 1.0170001 2.3402269e-38
-0.25860861 0.13075715 1.0170001 2.3402269e-38
-0.25667146 0.13075715 1.0170001 2.3402627e-38
-0.25473428 0.13075715 1.0170001 2.3402627e-38
-0.25279716 0.13075715 1.0170001 2.3402627e-38
-0.25086001 0.13075715 1.0170001 2.3402627e-38
-0.24892287 0.13075715 1.0170001 2.3404062e-38
-0.24698573 0.13075715 1.0170001 2.3404064e-38
-0.2450486 0.13075715 1.0170001 2.3404422e-38
-0.24311143 0.13075715 1.0170001 2.3404422e-38
-0.2411743 0.13075715 1.0170001 2.3407294e-38
-0.23994288 0.13114287 1.0200001 2.3406936e-38
-0.23869999 0.13152857 1.023 2.3406938e-38
-0.23675144 0.13152857 1.023 2.3407299e-38
-0.23480286 0.13152857 1.023 2.3407655e-38
-0.23353714 0.13191429 1.026 2.3406576e-38
-0.23248573 0.13242859 1.0300001 2.340586e-38
-0.23119524 0.13281429 1.033 2.3401557e-38
-0.22989333 0.1332 1.036 2.3400119e-38
-0.22858 0.13358571 1.039 2.3396888e-38
-0.22725524 0.13397144 1.0420001 2.3398323e-38
-0.22591905 0.13435715 1.0450001 2.3397965e-38
-0.22392859 0.13435715 1.0450001 2.3397246e-38
-0.22406192 0.13564286 1.0550001 2.3396888e-38
-0.2220524 0.13564286 1.0550001 2.3397277e-38
-0.22004287 0.13564286 1.0550001 2.3397308e-38
-0.28857142 0.13047619 1 2.3121544e-38
-0.28666666 0.13047619 1 2.3304871e-38
-0.28476191 0.13047619 1 2.302902e-38
-0.28370571 0.13086762 1.003 2.2844607e-38
-0.28179523 0.13086762 1.003 2.2843865e-38
-0.28074288 0.13308573 1.0200001 2.284347e-38
-0.27962002 0.13347714 1.023 2.3118918e-38
-0.27685717 0.13308573 1.0200001 2.3398705e-38
-0.27491432 0.13308573 1.0200001 2.3398681e-38
-0.27297145 0.13308573 1.0200001 2.3399399e-38
-0.27023143 0.13269429 1.0170001 2.3400475e-38
-0.2682943 0.13269429 1.0170001 2.3400476e-38
-0.26635715 0.13269429 1.0170001 2.3401195e-38
-0.26442003 0.13269429 1.0170001 2.3401194e-38
-0.26248288 0.13269429 1.0170001 2.3401551e-38
-0.26054573 0.13269429 1.0170001 2.3402627e-38
-0.25860861 0.13269429 1.0170001 2.3402627e-38
-0.25667146 0.13269429 1.0170001 2.3402627e-38
-0.25473428 0.13269429 1.0170001 2.3402986e-38
-0.25279716 0.13269429 1.0170001 2.3402627e-38
-0.25086001 0.13269429 1.0170001 2.3402627e-38
-0.24892287 0.13269429 1.0170001 2.3403345e-38
-0.24698573 0.13269429 1.0170001 2.3404064e-38
-0.2450486 0.13269429 1.0170001 2.3404422e-38
-0.24311143 0.13269429 1.0170001 2.3403705e-38
-0.2411743 0.13269429 1.0170001 2.3402629e-38
-0.24064857 0.13347714 1.023 2.3401911e-38
-0.23869999 0.13347714 1.023 2.3402271e-38
-0.23675144 0.13347714 1.023 2.3402632e-38
-0.23549142 0.13386856 1.026 2.3401913e-38
-0.23353714 0.13386856 1.026 2.3401553e-38
-0.23248573 0.13439049 1.0300001 2.3401195e-38
-0.23119524 0.1347819 1.033 2.3400838e-38
-0.22989333 0.13517334 1.036 2.3401194e-38
-0.22858 0.13556476 1.039 2.3397605e-38
-0.22725524 0.1359562 1.0420001 2.3397964e-38
-0.22591905 0.13634762 1.0450001 2.3398323e-38
-0.22392859 0.13634762 1.0450001 2.3397246e-38
-0.22406192 0.13765238 1.0550001 2.3396888e-38
-0.2220524 0.13765238 1.0550001 2.3397263e-38
-0.22004287 0.13765238 1.0550001 2.3397996e-38
-0.21803334 0.13765238 1.0550001 2.3398017e-38
-0.28239429 0.13582285 1.026 2.2843486e-38
-0.28044 0.13582285 1.026 2.3118951e-38
-0.27767143 0.13542572 1.023 2.3398722e-38
-0.27572286 0.13542572 1.023 2.3398683e-38
-0.27297145 0.13502859 1.0200001 2.3399399e-38
-0.27102858 0.13502859 1.0200001 2.3400116e-38
-0.26908574 0.13502859 1.0200001 2.3400475e-38
-0.26635715 0.13463144 1.0170001 2.3400834e-38
-0.26442003 0.13463144 1.0170001 2.3400475e-38
-0.26248288 0.13463144 1.0170001 2.3401551e-38
-0.26054573 0.13463144 1.0170001 2.3402986e-38
-0.25860861 0.13463144 1.0170001 2.3402269e-38
-0.25667146 0.13463144 1.0170001 2.3402269e-38
-0.25473428 0.13463144 1.0170001 2.3402986e-38
-0.25279716 0.13463144 1.0170001 2.3403704e-38
-0.25086001 0.13463144 1.0170001 2.3402269e-38
-0.24892287 0.13463144 1.0170001 2.3401911e-38
-0.24698573 0.13463144 1.0170001 2.3402989e-38
-0.2450486 0.13463144 1.0170001 2.3404422e-38
-0.24311143 0.13463144 1.0170001 2.3402988e-38
-0.24188574 0.13502859 1.0200001 2.340191e-38
-0.24064857 0.13542572 1.023 2.3401192e-38
-0.23869999 0.13542572 1.023 2.3400834e-38
-0.23744573 0.13582285 1.026 2.3401192e-38
-0.23549142 0.13582285 1.026 2.340191e-38
-0.23444764 0.13635239 1.0300001 2.3400834e-38
-0.23316285 0.13674952 1.033 2.3400118e-38
-0.23119524 0.13674952 1.033 2.3401195e-38
-0.22989333 0.13714667 1.036 2.340227e-38
-0.22858 0.13754381 1.039 2.3397605e-38
-0.22725524 0.13794096 1.0420001 2.3397246e-38
-0.22392859 0.1383381 1.0450001 2.3397605e-38
-0.22268383 0.14005905 1.0580001 2.3397608e-38
-0.2206686 0.14005905 1.0580001 2.3397609e-38
-0.21865335 0.14005905 1.0580001 2.3398342e-38
-0.28044 0.13777713 1.026 2.3118925e-38
-0.27767143 0.13737428 1.023 2.3398709e-38
-0.27572286 0.13737428 1.023 2.3398683e-38
-0.2737743 0.13737428 1.023 2.33994e-38
-0.27102858 0.13697143 1.0200001 2.3400118e-38
-0.26908574 0.13697143 1.0200001 2.3400475e-38
-0.26635715 0.13656859 1.0170001 2.3401192e-38
-0.26442003 0.13656859 1.0170001 2.3401553e-38
-0.26325715 0.13697143 1.0200001 2.3401913e-38
-0.26054573 0.13656859 1.0170001 2.3401911e-38
-0.25937146 0.13697143 1.0200001 2.3402269e-38
-0.25667146 0.13656859 1.0170001 2.3402269e-38
-0.25473428 0.13656859 1.0170001 2.3402986e-38
-0.25279716 0.13656859 1.0170001 2.3403345e-38
-0.25086001 0.13656859 1.0170001 2.3402269e-38
-0.24892287 0.13656859 1.0170001 2.3401551e-38
-0.24698573 0.13656859 1.0170001 2.3400835e-38
-0.2450486 0.13656859 1.0170001 2.339904e-38
-0.24382859 0.13697143 1.0200001 2.3397605e-38
-0.24188574 0.13697143 1.0200001 2.3396888e-38
-0.24064857 0.13737428 1.023 2.339617e-38
-0.23940001 0.13777713 1.026 2.3395453e-38
-0.23744573 0.13777713 1.026 2.3394735e-38
-0.23549142 0.13777713 1.026 2.3395453e-38
-0.23444764 0.13831429 1.0300001 2.339617e-38
-0.23316285 0.13871714 1.033 2.3395812e-38
-0.23119524 0.13871714 1.033 2.3395813e-38
-0.23055905 0.13952287 1.039 2.3396529e-38
-0.22858 0.13952287 1.039 2.3397605e-38
-0.22725524 0.13992572 1.0420001 2.3397605e-38
-0.22392859 0.14032859 1.0450001 2.3397605e-38
-0.22268383 0.14207429 1.0580001 2.3397259e-38
-0.2206686 0.14207429 1.0580001 2.3397272e-38
-0.21865335 0.14207429 1.0580001 2.3397643e-38
-0.2737743 0.13932286 1.023 2.3401195e-38
-0.2718257 0.13932286 1.023 2.3400121e-38
-0.26908574 0.1389143 1.0200001 2.3400835e-38
-0.26714289 0.1389143 1.0200001 2.3401192e-38
-0.26442003 0.13850573 1.0170001 2.3401913e-38
-0.26325715 0.1389143 1.0200001 2.3402274e-38
-0.2613143 0.1389143 1.0200001 2.3405141e-38
-0.25937146 0.1389143 1.0200001 2.340191e-38
-0.25742859 0.1389143 1.0200001 2.3401551e-38
-0.25548574 0.1389143 1.0200001 2.3402627e-38
-0.25354287 0.1389143 1.0200001 2.3403345e-38
-0.25160003 0.1389143 1.0200001 2.3401553e-38
-0.24965715 0.1389143 1.0200001 2.3401192e-38
-0.24771431 0.1389143 1.0200001 2.3307563e-38
-0.24577145 0.1389143 1.0200001 2.3306128e-38
-0.24382859 0.1389143 1.0200001 2.3305052e-38
-0.24188574 0.1389143 1.0200001 2.3395453e-38
-0.24064857 0.13932286 1.023 2.339617e-38
-0.23869999 0.13932286 1.023 2.3397246e-38
-0.23744573 0.13973142 1.026 2.3394377e-38
-0.23549142 0.13973142 1.026 2.33933e-38
-0.23444764 0.14027619 1.0300001 2.3393659e-38
-0.23248573 0.14027619 1.0300001 2.3394018e-38
-0.23119524 0.14068475 1.033 2.3395094e-38
-0.22989333 0.14109333 1.036 2.3398681e-38
-0.22858 0.14150192 1.039 2.3397605e-38
-0.22725524 0.14191049 1.0420001 2.339617e-38
-0.22268383 0.14408953 1.0580001 2.339727e-38
-0.2206686 0.14408953 1.0580001 2.3397293e-38
-0.21865335 0.14408953 1.0580001 2.3397302e-38
-0.28235334 0.14265238 1.033 2.293561e-38
-0.2803857 0.14265238 1.033 2.3397273e-38
-0.27760953 0.1422381 1.0300001 2.339904e-38
-0.27564764 0.1422381 1.0300001 2.33994e-38
-0.26987714 0.14127143 1.023 2.3400835e-38
-0.26714289 0.14085715 1.0200001 2.3401194e-38
-0.26520002 0.14085715 1.0200001 2.340227e-38
-0.26403144 0.14127143 1.023 2.340263e-38
-0.26208287 0.14127143 1.023 2.340227e-38
-0.26013428 0.14127143 1.023 2.340191e-38
-0.25742859 0.14085715 1.0200001 2.340191e-38
-0.25548574 0.14085715 1.0200001 2.3402269e-38
-0.25354287 0.14085715 1.0200001 2.3402986e-38
-0.25233999 0.14127143 1.023 2.3400834e-38
-0.25039142 0.14127143 1.023 2.3400116e-38
-0.24771431 0.14085715 1.0200001 2.330577e-38
-0.24577145 0.14085715 1.0200001 2.3305411e-38
-0.24382859 0.14085715 1.0200001 2.3304335e-38
-0.24259715 0.14127143 1.023 2.339653e-38
-0.24064857 0.14127143 1.023 2.3401911e-38
-0.23940001 0.14168572 1.026 2.3397964e-38
-0.23744573 0.14168572 1.026 2.3394377e-38
-0.23549142 0.14168572 1.026 2.3394377e-38
-0.23353714 0.14168572 1.026 2.3394377e-38
-0.23248573 0.1422381 1.0300001 2.3394377e-38
-0.23119524 0.14265238 1.033 2.3394377e-38
-0.22989333 0.14306666 1.036 2.339904e-38
-0.22792001 0.14306666 1.036 2.3397607e-38
-0.22660096 0.14348096 1.039 2.3396529e-38
-0.22406192 0.14569049 1.0550001 2.3397246e-38
-0.2220524 0.14569049 1.0550001 2.3396899e-38
-0.22004287 0.14569049 1.0550001 2.3396551e-38
-0.28878286 0.14588001 1.0420001 2.2476899e-38
-0.28235334 0.14462 1.033 2.2936352e-38
-0.2803857 0.14462 1.033 2.3395849e-38
-0.27760953 0.14420001 1.0300001 2.3397964e-38
-0.27564764 0.14420001 1.0300001 2.3399399e-38
-0.27066857 0.14364001 1.026 2.3400837e-38
-0.26792857 0.14321999 1.023 2.3401914e-38
-0.26597998 0.14321999 1.023 2.3402988e-38
-0.26403144 0.14321999 1.023 2.3402269e-38
-0.26208287 0.14321999 1.023 2.3401551e-38
-0.26013428 0.14321999 1.023 2.3401192e-38
-0.25818571 0.14321999 1.023 2.3400834e-38
-0.25623715 0.14321999 1.023 2.3401551e-38
-0.25428855 0.14321999 1.023 2.3402627e-38
-0.25233999 0.14321999 1.023 2.3400116e-38
-0.25039142 0.14321999 1.023 2.339904e-38
-0.24844284 0.14321999 1.023 2.3306128e-38
-0.24649428 0.14321999 1.023 2.3213217e-38
-0.24454573 0.14321999 1.023 2.3305412e-38
-0.24259715 0.14321999 1.023 2.3397967e-38
-0.2413543 0.14364001 1.026 2.3398327e-38
-0.23940001 0.14364001 1.026 2.3398683e-38
-0.23744573 0.14364001 1.026 2.3394735e-38
-0.23549142 0.14364001 1.026 2.3395453e-38
-0.23444764 0.14420001 1.0300001 2.3395094e-38
-0.23248573 0.14420001 1.0300001 2.3395094e-38
-0.23186667 0.14504001 1.036 2.3397246e-38
-0.22989333 0.14504001 1.036 2.33994e-38
-0.22858 0.14545999 1.039 2.3399403e-38
-0.22725524 0.14588001 1.0420001 2.3399759e-38
-0.22607145 0.14770001 1.0550001 2.3397246e-38
-0.22406192 0.14770001 1.0550001 2.3396529e-38
-0.22268383 0.14812002 1.0580001 2.3395812e-38
-0.2206686 0.14812002 1.0580001 2.3395812e-38
-0.21927336 0.14854001 1.0610001 2.3395835e-38
-0.28878286 0.14786477 1.0420001 2.2568753e-38
-0.28597239 0.14743905 1.039 2.2568711e-38
-0.28317332 0.14701334 1.036 2.2936728e-38
-0.28119999 0.14701334 1.036 2.3395499e-38
-0.27841809 0.14658761 1.033 2.3397246e-38
-0.27564764 0.14616191 1.0300001 2.3399758e-38
-0.27368572 0.14616191 1.0300001 2.3400116e-38
-0.27172384 0.14616191 1.0300001 2.3400835e-38
-0.26871428 0.1455943 1.026 2.3402632e-38
-0.26597998 0.14516857 1.023 2.340227e-38
-0.26403144 0.14516857 1.023 2.340191e-38
-0.26208287 0.14516857 1.023 2.3401551e-38
-0.26013428 0.14516857 1.023 2.3401192e-38
-0.25818571 0.14516857 1.023 2.3400475e-38
-0.25623715 0.14516857 1.023 2.3400116e-38
-0.25428855 0.14516857 1.023 2.3399758e-38
-0.25233999 0.14516857 1.023 2.3399758e-38
-0.25039142 0.14516857 1.023 2.3399399e-38
-0.24844284 0.14516857 1.023 2.3306487e-38
-0.24649428 0.14516857 1.023 2.3212858e-38
-0.24454573 0.14516857 1.023 2.330577e-38
-0.24259715 0.14516857 1.023 2.3397607e-38
-0.2413543 0.1455943 1.026 2.3397965e-38
-0.23940001 0.1455943 1.026 2.3396888e-38
-0.23744573 0.1455943 1.026 2.3395453e-38
-0.23640954 0.14616191 1.0300001 2.339617e-38
-0.23444764 0.14616191 1.0300001 2.3397246e-38
-0.23248573 0.14616191 1.0300001 2.3398681e-38
-0.23186667 0.14701334 1.036 2.3400116e-38
-0.23055905 0.14743905 1.039 2.3400118e-38
-0.22924002 0.14786477 1.0420001 2.3400478e-38
-0.22790955 0.14829049 1.0450001 2.3400118e-38
-0.2274324 0.14928381 1.052 2.3397605e-38
-0.22607145 0.14970952 1.0550001 2.339617e-38
-0.22406192 0.14970952 1.0550001 2.3395094e-38
-0.22268383 0.15013525 1.0580001 2.3395453e-38
-0.22129431 0.15056098 1.0610001 2.3391865e-38
-0.21927336 0.15056098 1.0610001 2.3395833e-38
-0.2172524 0.15056098 1.0610001 2.3026359e-38
-0.28597239 0.1494181 1.039 2.2568729e-38
-0.28317332 0.14898667 1.036 2.2936029e-38
-0.28119999 0.14898667 1.036 2.3395509e-38
-0.27841809 0.14855523 1.033 2.3397964e-38
-0.27645048 0.14855523 1.033 2.3400116e-38
-0.27368572 0.14812382 1.0300001 2.3399758e-38
-0.27172384 0.14812382 1.0300001 2.3401194e-38
-0.26871428 0.14754859 1.026 2.3401197e-38
-0.26675999 0.14754859 1.026 2.3401553e-38
-0.26480573 0.14754859 1.026 2.3401551e-38
-0.26285145 0.14754859 1.026 2.3401551e-38
-0.26089716 0.14754859 1.026 2.3401553e-38
-0.25894287 0.14754859 1.026 2.3404421e-38
-0.25698858 0.14754859 1.026 2.3401551e-38
-0.2550343 0.14754859 1.026 2.3401192e-38
-0.25308001 0.14754859 1.026 2.3400475e-38
-0.25039142 0.14711715 1.023 2.3399758e-38
-0.24844284 0.14711715 1.023 2.3307563e-38
-0.24649428 0.14711715 1.023 2.3304693e-38
-0.24454573 0.14711715 1.023 2.330577e-38
-0.24259715 0.14711715 1.023 2.3398681e-38
-0.2413543 0.14754859 1.026 2.3398323e-38
-0.23940001 0.14754859 1.026 2.339617e-38
-0.23744573 0.14754859 1.026 2.3397246e-38
-0.23549142 0.14754859 1.026 2.3398323e-38
-0.23444764 0.14812382 1.0300001 2.3398681e-38
-0.23248573 0.14812382 1.0300001 2.339904e-38
-0.23186667 0.14898667 1.036 2.3399759e-38
-0.22989333 0.14898667 1.036 2.3400835e-38
-0.22924002 0.14984953 1.0420001 2.3400476e-38
-0.22790955 0.15028097 1.0450001 2.3400475e-38
-0.2274324 0.15128762 1.052 2.3396529e-38
-0.22542858 0.15128762 1.052 2.3395453e-38
-0.22406192 0.15171905 1.0550001 2.3395094e-38
-0.2220524 0.15171905 1.0550001 2.3395094e-38
-0.21989334 0.15301333 1.064 2.3396188e-38
-0.21786667 0.15301333 1.064 2.3118548e-38
-0.28317332 0.15096 1.036 2.2935673e-38
-0.28119999 0.15096 1.036 2.3395152e-38
-0.27841809 0.15052286 1.033 2.339904e-38
-0.27645048 0.15052286 1.033 2.3399399e-38
-0.27368572 0.15008572 1.0300001 2.3399758e-38
-0.27172384 0.15008572 1.0300001 2.3400475e-38
-0.26871428 0.14950286 1.026 2.3401911e-38
-0.26675999 0.14950286 1.026 2.3401551e-38
-0.26480573 0.14950286 1.026 2.3403704e-38
-0.26285145 0.14950286 1.026 2.340191e-38
-0.26089716 0.14950286 1.026 2.340227e-38
-0.25894287 0.14950286 1.026 2.3402627e-38
-0.25698858 0.14950286 1.026 2.3402986e-38
-0.2550343 0.14950286 1.026 2.3402269e-38
-0.25308001 0.14950286 1.026 2.340191e-38
-0.25112572 0.14950286 1.026 2.3400834e-38
-0.24844284 0.1490657 1.023 2.3400475e-38
-0.24649428 0.1490657 1.023 2.3400116e-38
-0.24454573 0.1490657 1.023 2.3400116e-38
-0.24259715 0.1490657 1.023 2.3400116e-38
-0.2413543 0.14950286 1.026 2.3400475e-38
-0.23940001 0.14950286 1.026 2.3399758e-38
-0.23744573 0.14950286 1.026 2.33994e-38
-0.23549142 0.14950286 1.026 2.339904e-38
-0.23444764 0.15008572 1.0300001 2.339904e-38
-0.23248573 0.15008572 1.0300001 2.3401192e-38
-0.23186667 0.15096 1.036 2.3403346e-38
-0.23055905 0.15139715 1.039 2.3401911e-38
-0.22924002 0.15183429 1.0420001 2.3397605e-38
-0.22790955 0.15227143 1.0450001 2.3396529e-38
-0.2274324 0.15329143 1.052 2.3395453e-38
-0.22542858 0.15329143 1.052 2.3395812e-38
-0.22406192 0.15372857 1.0550001 2.339617e-38
-0.28399336 0.15337619 1.039 2.28442e-38
-0.28119999 0.15293333 1.036 2.3395153e-38
-0.27841809 0.15249048 1.033 2.3396888e-38
-0.27645048 0.15249048 1.033 2.3398681e-38
-0.27368572 0.15204762 1.0300001 2.339904e-38
-0.27172384 0.15204762 1.0300001 2.3400116e-38
-0.26976192 0.15204762 1.0300001 2.340191e-38
-0.26780003 0.15204762 1.0300001 2.340191e-38
-0.26480573 0.15145715 1.026 2.340191e-38
-0.26285145 0.15145715 1.026 2.3402269e-38
-0.26089716 0.15145715 1.026 2.3402629e-38
-0.25894287 0.15145715 1.026 2.3402986e-38
-0.25698858 0.15145715 1.026 2.3402627e-38
-0.2550343 0.15145715 1.026 2.3402627e-38
-0.25308001 0.15145715 1.026 2.340191e-38
-0.25112572 0.15145715 1.026 2.3401192e-38
-0.24917144 0.15145715 1.026 2.3401194e-38
-0.24721715 0.15145715 1.026 2.3401192e-38
-0.24526286 0.15145715 1.026 2.3401551e-38
-0.24330857 0.15145715 1.026 2.340191e-38
-0.2413543 0.15145715 1.026 2.3401911e-38
-0.23940001 0.15145715 1.026 2.3401911e-38
-0.23744573 0.15145715 1.026 2.3402989e-38
-0.23549142 0.15145715 1.026 2.3404064e-38
-0.23444764 0.15204762 1.0300001 2.3405139e-38
-0.23248573 0.15204762 1.0300001 2.3406575e-38
-0.23119524 0.15249048 1.033 2.3403348e-38
-0.22989333 0.15293333 1.036 2.3402988e-38
-0.22924002 0.15381905 1.0420001 2.3397605e-38
-0.22790955 0.1542619 1.0450001 2.3397246e-38
-0.22656764 0.15470478 1.0480001 2.3397246e-38
-0.22457144 0.15470478 1.0480001 2.3397246e-38
-0.22257526 0.15470478 1.0480001 2.3396529e-38
-0.22057906 0.15470478 1.0480001 2.339617e-38
-0.28317332 0.15490668 1.036 2.2752725e-38
-0.28119999 0.15490668 1.036 2.3395154e-38
-0.27841809 0.15445809 1.033 2.3395094e-38
-0.27645048 0.15445809 1.033 2.3399399e-38
-0.27368572 0.15400954 1.0300001 2.3398683e-38
-0.27172384 0.15400954 1.0300001 2.3400476e-38
-0.26976192 0.15400954 1.0300001 2.340227e-38
-0.26780003 0.15400954 1.0300001 2.340227e-38
-0.26480573 0.15341143 1.026 2.3400116e-38
-0.26285145 0.15341143 1.026 2.3404062e-38
-0.26089716 0.15341143 1.026 2.3404422e-38
-0.25894287 0.15341143 1.026 2.3404062e-38
-0.25698858 0.15341143 1.026 2.3404062e-38
-0.2550343 0.15341143 1.026 2.3402627e-38
-0.25308001 0.15341143 1.026 2.3402269e-38
-0.25112572 0.15341143 1.026 2.340191e-38
-0.24917144 0.15341143 1.026 2.340191e-38
-0.24721715 0.15341143 1.026 2.340191e-38
-0.24454573 0.15296286 1.023 2.340191e-38
-0.24330857 0.15341143 1.026 2.3402269e-38
-0.2413543 0.15341143 1.026 2.3402986e-38
-0.23940001 0.15341143 1.026 2.3404422e-38
-0.23744573 0.15341143 1.026 2.3405857e-38
-0.23549142 0.15341143 1.026 2.3404424e-38
-0.23444764 0.15400954 1.0300001 2.3403349e-38
-0.23248573 0.15400954 1.0300001 2.3403348e-38
-0.23119524 0.15445809 1.033 2.3403705e-38
-0.23055905 0.15535524 1.039 2.3403345e-38
-0.22924002 0.15580381 1.0420001 2.3397964e-38
-0.22790955 0.1562524 1.0450001 2.3397964e-38
-0.22656764 0.15670095 1.0480001 2.3397964e-38
-0.22457144 0.15670095 1.0480001 2.3397246e-38
-0.22257526 0.15670095 1.0480001 2.3396888e-38
-0.22057906 0.15670095 1.0480001 2.339617e-38
-0.28317332 0.15687999 1.036 2.2383232e-38
-0.28119999 0.15687999 1.036 2.3118572e-38
-0.27841809 0.1564257 1.033 2.3211782e-38
-0.27645048 0.1564257 1.033 2.3400476e-38
-0.27368572 0.15597145 1.0300001 2.3401195e-38
-0.27172384 0.15597145 1.0300001 2.3404065e-38
-0.26976192 0.15597145 1.0300001 2.3402632e-38
-0.26675999 0.15536572 1.026 2.3402989e-38
-0.26480573 0.15536572 1.026 2.3401553e-38
-0.26285145 0.15536572 1.026 2.3406216e-38
-0.26089716 0.15536572 1.026 2.3405857e-38
-0.25894287 0.15536572 1.026 2.3405497e-38
-0.25698858 0.15536572 1.026 2.3404062e-38
-0.2550343 0.15536572 1.026 2.3402627e-38
-0.25308001 0.15536572 1.026 2.3402627e-38
-0.25112572 0.15536572 1.026 2.3402627e-38
-0.24917144 0.15536572 1.026 2.3402269e-38
-0.24721715 0.15536572 1.026 2.3402986e-38
-0.24526286 0.15536572 1.026 2.3402627e-38
-0.24330857 0.15536572 1.026 2.3402627e-38
-0.2413543 0.15536572 1.026 2.3404062e-38
-0.23940001 0.15536572 1.026 2.3405139e-38
-0.23837145 0.15597145 1.0300001 2.3406216e-38
-0.23640954 0.15597145 1.0300001 2.3407297e-38
-0.23444764 0.15597145 1.0300001 2.3407301e-38
-0.23316285 0.1564257 1.033 2.3407654e-38
-0.23186667 0.15687999 1.036 2.3402269e-38
-0.22989333 0.15687999 1.036 2.3403704e-38
-0.22858 0.15733428 1.039 2.3402629e-38
-0.22725524 0.15778857 1.0420001 2.3401551e-38
-0.22656764 0.15869716 1.0480001 2.3397964e-38
-0.28119999 0.15885334 1.036 2.284199e-38
-0.27841809 0.15839334 1.033 2.3120664e-38
-0.27645048 0.15839334 1.033 2.3400116e-38
-0.27368572 0.15793335 1.0300001 2.340227e-38
-0.27172384 0.15793335 1.0300001 2.3402629e-38
-0.26976192 0.15793335 1.0300001 2.3402988e-38
-0.26675999 0.15732001 1.026 2.3402988e-38
-0.26480573 0.15732001 1.026 2.3402988e-38
-0.26285145 0.15732001 1.026 2.3402988e-38
-0.26089716 0.15732001 1.026 2.3402988e-38
-0.25894287 0.15732001 1.026 2.3403345e-38
-0.25698858 0.15732001 1.026 2.3404062e-38
-0.2550343 0.15732001 1.026 2.3403345e-38
-0.25308001 0.15732001 1.026 2.3402986e-38
-0.25112572 0.15732001 1.026 2.3402986e-38
-0.24917144 0.15732001 1.026 2.3401551e-38
-0.24721715 0.15732001 1.026 2.3403704e-38
-0.24526286 0.15732001 1.026 2.3403704e-38
-0.24330857 0.15732001 1.026 2.3404421e-38
-0.2413543 0.15732001 1.026 2.3405497e-38
-0.23940001 0.15732001 1.026 2.3405856e-38
-0.23837145 0.15793335 1.0300001 2.3406573e-38
-0.23640954 0.15793335 1.0300001 2.3406935e-38
-0.23513047 0.15839334 1.033 2.3407295e-38
-0.23316285 0.15839334 1.033 2.3406575e-38
-0.23186667 0.15885334 1.036 2.3401192e-38
-0.23055905 0.15931334 1.039 2.3401192e-38
-0.22924002 0.15977333 1.0420001 2.3401192e-38
-0.22790955 0.16023335 1.0450001 2.3399399e-38
-0.27841809 0.16036095 1.033 2.302847e-38
-0.27645048 0.16036095 1.033 2.3400116e-38
-0.27368572 0.15989526 1.0300001 2.3400475e-38
-0.27172384 0.15989526 1.0300001 2.3400834e-38
-0.26976192 0.15989526 1.0300001 2.340191e-38
-0.26675999 0.15927429 1.026 2.3403704e-38
-0.26480573 0.15927429 1.026 2.3403705e-38
-0.26285145 0.15927429 1.026 2.3404064e-38
-0.26089716 0.15927429 1.026 2.3403705e-38
-0.25894287 0.15927429 1.026 2.3403346e-38
-0.25698858 0.15927429 1.026 2.3403705e-38
-0.2550343 0.15927429 1.026 2.3406573e-38
-0.25308001 0.15927429 1.026 2.3402627e-38
-0.25210479 0.15989526 1.0300001 2.3403704e-38
-0.24917144 0.15927429 1.026 2.3404062e-38
-0.24818097 0.15989526 1.0300001 2.3404421e-38
-0.24526286 0.15927429 1.026 2.340478e-38
-0.24330857 0.15927429 1.026 2.3405497e-38
-0.2413543 0.15927429 1.026 2.3405856e-38
-0.23940001 0.15927429 1.026 2.3406573e-38
-0.23837145 0.15989526 1.0300001 2.3406215e-38
-0.23640954 0.15989526 1.0300001 2.3406215e-38
-0.23513047 0.16036095 1.033 2.3405856e-38
-0.23383999 0.16082667 1.036 2.3405856e-38
-0.2325381 0.16129239 1.039 2.3405139e-38
-0.22989333 0.16082667 1.036 2.340478e-38
-0.22924002 0.1617581 1.0420001 2.3400834e-38
-0.22790955 0.16222382 1.0450001 2.3397964e-38
-0.22542003 0.16626 1.0710001 2.3398324e-38
-0.27841809 0.16232856 1.033 2.2936296e-38
-0.27645048 0.16232856 1.033 2.3397975e-38
-0.27368572 0.16185716 1.0300001 2.3400475e-38
-0.27172384 0.16185716 1.0300001 2.3400835e-38
-0.26976192 0.16185716 1.0300001 2.3400835e-38
-0.26780003 0.16185716 1.0300001 2.3403705e-38
-0.26583812 0.16185716 1.0300001 2.3404421e-38
-0.26285145 0.16122858 1.026 2.3404062e-38
-0.26089716 0.16122858 1.026 2.3404064e-38
-0.25894287 0.16122858 1.026 2.3403704e-38
-0.25698858 0.16122858 1.026 2.3403704e-38
-0.25602859 0.16185716 1.0300001 2.3402986e-38
-0.25406668 0.16185716 1.0300001 2.3402627e-38
-0.25210479 0.16185716 1.0300001 2.3404421e-38
-0.25014287 0.16185716 1.0300001 2.3405139e-38
-0.24818097 0.16185716 1.0300001 2.3405139e-38
-0.24621907 0.16185716 1.0300001 2.3405856e-38
-0.24425717 0.16185716 1.0300001 2.3405856e-38
-0.24229525 0.16185716 1.0300001 2.3406215e-38
-0.23940001 0.16122858 1.026 2.3406215e-38
-0.23837145 0.16185716 1.0300001 2.3406215e-38
-0.23640954 0.16185716 1.0300001 2.3406215e-38
-0.2364962 0.16327144 1.039 2.3406215e-38
-0.23451716 0.16327144 1.039 2.3406215e-38
-0.2325381 0.16327144 1.039 2.3404062e-38
-0.23055905 0.16327144 1.039 2.340478e-38
-0.22924002 0.16374287 1.0420001 2.3400475e-38
-0.22735716 0.16672859 1.0610001 2.3397605e-38
-0.22597334 0.1672 1.064 2.3398324e-38
-0.22338003 0.1683 1.0710001 2.3396529e-38
-0.27841809 0.16429619 1.033 2.2843766e-38
-0.27564764 0.16381906 1.0300001 2.3395834e-38
-0.27368572 0.16381906 1.0300001 2.3399759e-38
-0.27172384 0.16381906 1.0300001 2.3401195e-38
-0.26976192 0.16381906 1.0300001 2.3401197e-38
-0.26780003 0.16381906 1.0300001 2.3403705e-38
-0.26583812 0.16381906 1.0300001 2.3403704e-38
-0.26387623 0.16381906 1.0300001 2.3403704e-38
-0.26191428 0.16381906 1.0300001 2.3403705e-38
-0.2599524 0.16381906 1.0300001 2.3403704e-38
-0.25799048 0.16381906 1.0300001 2.3404421e-38
-0.25602859 0.16381906 1.0300001 2.3405139e-38
-0.25406668 0.16381906 1.0300001 2.3405139e-38
-0.25210479 0.16381906 1.0300001 2.3405139e-38
-0.25014287 0.16381906 1.0300001 2.3405139e-38
-0.24818097 0.16381906 1.0300001 2.3405139e-38
-0.24621907 0.16381906 1.0300001 2.340478e-38
-0.24425717 0.16381906 1.0300001 2.340478e-38
-0.24229525 0.16381906 1.0300001 2.3405856e-38
-0.24033335 0.16381906 1.0300001 2.340765e-38
-0.23778668 0.16477334 1.036 2.3406216e-38
-0.23581333 0.16477334 1.036 2.3406216e-38
-0.23451716 0.16525048 1.039 2.3406573e-38
-0.2325381 0.16525048 1.039 2.3405139e-38
-0.23055905 0.16525048 1.039 2.340478e-38
-0.22872953 0.16827239 1.0580001 2.3400116e-38
-0.2267143 0.16827239 1.0580001 2.3400475e-38
-0.22533621 0.16874953 1.0610001 2.3397964e-38
-0.22331525 0.16874953 1.0610001 2.3398323e-38
-0.22192 0.16922666 1.064 2.3397248e-38
-0.21989334 0.16922666 1.064 2.3396172e-38
-0.21786667 0.16922666 1.064 2.3395814e-38
-0.27564764 0.16578098 1.0300001 2.3397637e-38
-0.27172384 0.16578098 1.0300001 2.3400835e-38
-0.26976192 0.16578098 1.0300001 2.3401911e-38
-0.26780003 0.16578098 1.0300001 2.3403704e-38
-0.26583812 0.16578098 1.0300001 2.3404062e-38
-0.26387623 0.16578098 1.0300001 2.3404421e-38
-0.26191428 0.16578098 1.0300001 2.340514e-38
-0.2599524 0.16578098 1.0300001 2.3405139e-38
-0.25799048 0.16578098 1.0300001 2.3405139e-38
-0.25602859 0.16578098 1.0300001 2.3405497e-38
-0.25406668 0.16578098 1.0300001 2.3405856e-38
-0.25210479 0.16578098 1.0300001 2.3404421e-38
-0.25014287 0.16578098 1.0300001 2.3403704e-38
-0.24890381 0.1662638 1.033 2.3403704e-38
-0.24693617 0.1662638 1.033 2.3404062e-38
-0.24496858 0.1662638 1.033 2.340478e-38
-0.24300095 0.1662638 1.033 2.3405497e-38
-0.24173334 0.16674666 1.036 2.3406932e-38
-0.23976 0.16674666 1.036 2.3407291e-38
-0.23778668 0.16674666 1.036 2.3406573e-38
-0.2364962 0.16722952 1.039 2.3406573e-38
-0.23451716 0.16722952 1.039 2.3406215e-38
-0.2325381 0.16722952 1.039 2.3405856e-38
-0.23122478 0.16771239 1.0420001 2.340478e-38
-0.22943619 0.16932191 1.052 2.3400116e-38
-0.22808096 0.16980477 1.0550001 2.3400116e-38
-0.2267143 0.17028764 1.0580001 2.339904e-38
-0.22533621 0.1707705 1.0610001 2.3397605e-38
-0.22394666 0.17125332 1.064 2.3397605e-38
-0.22192 0.17125332 1.064 2.3397964e-38
-0.21786667 0.17125332 1.064 2.3396532e-38
-0.21584 0.17125332 1.064 2.3395841e-38
-0.27330667 0.16872001 1.036 2.3400475e-38
-0.27133334 0.16872001 1.036 2.340191e-38
-0.26661238 0.16823143 1.033 2.3405497e-38
-0.26387623 0.16774288 1.0300001 2.3405497e-38
-0.26267713 0.16823143 1.033 2.3405499e-38
-0.2599524 0.16774288 1.0300001 2.3405856e-38
-0.25799048 0.16774288 1.0300001 2.3405856e-38
-0.25602859 0.16774288 1.0300001 2.3406215e-38
-0.25406668 0.16774288 1.0300001 2.3405139e-38
-0.25283903 0.16823143 1.033 2.3404062e-38
-0.25087142 0.16823143 1.033 2.3404062e-38
-0.24890381 0.16823143 1.033 2.3404062e-38
-0.24693617 0.16823143 1.033 2.3404062e-38
-0.24567999 0.16872001 1.036 2.3406573e-38
-0.24370666 0.16872001 1.036 2.3406575e-38
-0.24173334 0.16872001 1.036 2.3406573e-38
-0.23976 0.16872001 1.036 2.3406573e-38
-0.23778668 0.16872001 1.036 2.3406932e-38
-0.2364962 0.16920857 1.039 2.3406573e-38
-0.23451716 0.16920857 1.039 2.3405856e-38
-0.2325381 0.16920857 1.039 2.3405499e-38
-0.23122478 0.16969715 1.0420001 2.340478e-38
-0.22943619 0.17132573 1.052 2.3399758e-38
-0.22872953 0.17230287 1.0580001 2.339904e-38
-0.2267143 0.17230287 1.0580001 2.3397964e-38
-0.22533621 0.17279144 1.0610001 2.3397605e-38
-0.22394666 0.17328 1.064 2.3397246e-38
-0.22192 0.17328 1.064 2.3396529e-38
-0.22072001 0.17393143 1.0680001 2.3396172e-38
-0.21868572 0.17393143 1.0680001 2.3396173e-38
-0.2740981 0.17118762 1.039 2.3399758e-38
-0.27211905 0.17118762 1.039 2.3402269e-38
-0.27013999 0.17118762 1.039 2.340478e-38
-0.26661238 0.17019905 1.033 2.3405497e-38
-0.26464474 0.17019905 1.033 2.3405497e-38
-0.26267713 0.17019905 1.033 2.3406215e-38
-0.26070952 0.17019905 1.033 2.3406215e-38
-0.25874189 0.17019905 1.033 2.3406215e-38
-0.25751999 0.17069332 1.036 2.3405497e-38
-0.25480667 0.17019905 1.033 2.3404421e-38
-0.25283903 0.17019905 1.033 2.3405139e-38
-0.2516 0.17069332 1.036 2.3405856e-38
-0.24962667 0.17069332 1.036 2.3404062e-38
-0.24765334 0.17069332 1.036 2.3404421e-38
-0.24567999 0.17069332 1.036 2.3406573e-38
-0.24370666 0.17069332 1.036 2.3407292e-38
-0.24173334 0.17069332 1.036 2.3406216e-38
-0.23976 0.17069332 1.036 2.3406215e-38
-0.23847523 0.17118762 1.039 2.3406573e-38
-0.2364962 0.17118762 1.039 2.3406932e-38
-0.23451716 0.17118762 1.039 2.3405856e-38
-0.2325381 0.17118762 1.039 2.3405497e-38
-0.23122478 0.17168191 1.0420001 2.3405497e-38
-0.23144001 0.17332952 1.052 2.3401194e-38
-0.22943619 0.17332952 1.052 2.3400475e-38
-0.22872953 0.1743181 1.0580001 2.3398323e-38
-0.2267143 0.1743181 1.0580001 2.3397964e-38
-0.22533621 0.17481241 1.0610001 2.3397964e-38
-0.22331525 0.17481241 1.0610001 2.3396888e-38
-0.22192 0.17530668 1.064 2.3394377e-38
-0.22072001 0.17596573 1.0680001 2.3394738e-38
-0.21786667 0.17530668 1.064 2.3395101e-38
-0.21584 0.17530668 1.064 2.339655e-38
-0.27488953 0.17366667 1.0420001 2.3399399e-38
-0.27211905 0.17316668 1.039 2.3402269e-38
-0.27013999 0.17316668 1.039 2.3403704e-38
-0.26816094 0.17316668 1.039 2.340478e-38
-0.26541331 0.17266667 1.036 2.3405856e-38
-0.26343998 0.17266667 1.036 2.3405856e-38
-0.26070952 0.17216666 1.033 2.3405497e-38
-0.25874189 0.17216666 1.033 2.3406216e-38
-0.25751999 0.17266667 1.036 2.3405139e-38
-0.25554666 0.17266667 1.036 2.3404062e-38
-0.25357336 0.17266667 1.036 2.3409085e-38
-0.2516 0.17266667 1.036 2.340478e-38
-0.24962667 0.17266667 1.036 2.3404062e-38
-0.24765334 0.17266667 1.036 2.3405139e-38
-0.24639143 0.17316668 1.039 2.3406934e-38
